8.410751462692598324e-01 8.393867425043648467e-01 7.958530498550615562e-01
1.185284561976636120e+00 8.490725374838601347e-01 8.557101117152692282e-01
1.205651512501265454e+00 4.975971328895254508e-01 8.243017826470397935e-01
9.898972434380381991e-01 8.162053485499372041e-01 7.476113317973971384e-01
9.771887654344939556e-01 8.476002781079514659e-01 6.974914274190204821e-01
9.153882173313552251e-01 4.924637017437316633e-01 8.305525566697218309e-01
8.172653351411061085e-01 9.689054571450494979e-01 7.528834094517942166e-01
1.017661091257559658e+00 7.574413242625837039e-01 8.650126850010869672e-01
7.728739761156611099e-01 8.515126012328548821e-01 9.002526305801374917e-01
1.017422272487746859e+00 9.428568554514327182e-01 7.522594929679490283e-01
8.495129815469943946e-01 9.471112732759305874e-01 8.520592482501325726e-01
9.523582314778080704e-01 5.123118224213853988e-01 6.694177744988077938e-01
1.238658242884731475e+00 9.275901836421083235e-01 7.860198395760469303e-01
8.150430519631157722e-01 9.549726501178684712e-01 8.549520608028018387e-01
9.537553205896396324e-01 6.262310665544021937e-01 7.654785659494927064e-01
1.077119702902882281e+00 5.290046890091117948e-01 6.829006358145746081e-01
7.475390063345229708e-01 8.883153061453448185e-01 7.489235020354432226e-01
1.073273653107527092e+00 9.593242349513296796e-01 9.292650524796368661e-01
1.137234938685142582e+00 8.173702670888186583e-01 8.670576468483249810e-01
9.741268650064723866e-01 9.511942441346123989e-01 8.252876052615590874e-01
7.560347016900913486e-01 9.229654223001999558e-01 7.015183016802380989e-01
8.654140636807394760e-01 9.429776945816954470e-01 9.195781061879511054e-01
1.017899893429608627e+00 5.952459032394580296e-01 9.268703833547125015e-01
1.033640666982996947e+00 9.187745264917606125e-01 6.571104125378640637e-01
9.499232682418251583e-01 9.418333596905348326e-01 6.968223943788605101e-01
1.169162275911047155e+00 8.372220320130046023e-01 8.908888755465724785e-01
1.148702329037484704e+00 5.053091239781501987e-01 8.783620301005323761e-01
1.025419287754538056e+00 9.468216482321947236e-01 7.717926220894849587e-01
7.892356369761530654e-01 5.014263885141259092e-01 8.205815917477313759e-01
1.149087523486973295e+00 8.132675065952348348e-01 8.160999253857248448e-01
1.009875608036759242e+00 7.099457866009029061e-01 8.957202009218121486e-01
1.092491475891742780e+00 9.350018899604450873e-01 6.995109469995643980e-01
9.270043872728420675e-01 6.421790090742317547e-01 8.893778040999913426e-01
1.192795441648694110e+00 5.091740733245034845e-01 8.945126748288609875e-01
1.177261883800589271e+00 5.331576966970790199e-01 7.731001117461290262e-01
1.025265016149744302e+00 7.932674395557713920e-01 8.536193607869215771e-01
9.382298661387011851e-01 7.688831338588382192e-01 8.004089677578000162e-01
8.946360907991972589e-01 5.605943673202369304e-01 7.357915177090965653e-01
8.781865982606333887e-01 9.209713439165725379e-01 6.574441477375733145e-01
9.693819042938134345e-01 8.356385509780990262e-01 6.934243832385904582e-01
9.471028855644432198e-01 5.044147303036540242e-01 8.935377692478436717e-01
1.064754418707323014e+00 7.141972566618148832e-01 8.540663051422128227e-01
7.930022471072746271e-01 7.327972787034743307e-01 8.128748123569655704e-01
1.136144244294573724e+00 6.117707134913311640e-01 8.472771464980870526e-01
1.057233999009424830e+00 9.394149695523126287e-01 8.230747323241163205e-01
7.681654025000295150e-01 5.050894585668083137e-01 8.911295372564747019e-01
1.024639686174508402e+00 5.916656216227657028e-01 7.906889194464634674e-01
8.922908191129388378e-01 9.665209388034209370e-01 9.011942979863585279e-01
7.880265239949715284e-01 9.432127241482897162e-01 8.858046909731477347e-01
9.387672408747343988e-01 8.041849816325548073e-01 7.771712137764579253e-01
9.708820277133347609e-01 7.807960715303803312e-01 9.110811609285525137e-01
1.261311058932391260e+00 9.397672457373775767e-01 8.958110623409494266e-01
1.128737169804127971e+00 9.627890587908431996e-01 7.463472008749221231e-01
8.079199768237499413e-01 9.078528282994002829e-01 6.441213682813191621e-01
1.226725941789269303e+00 9.472268448313571065e-01 7.626410258243691009e-01
1.021519240822784669e+00 5.992684924416816772e-01 8.996821035701129121e-01
7.638631700801112867e-01 5.052453823406817257e-01 8.591027250211351607e-01
1.105112405301299283e+00 9.356986244235919736e-01 8.590024045511149842e-01
8.533511879768171937e-01 7.130487071416781175e-01 7.803397846174986441e-01
1.256988699418521094e+00 9.633737101681660864e-01 8.840957689398876163e-01
9.229180000122789718e-01 9.474834054005062400e-01 8.434019141878518200e-01
1.005830448699581048e+00 7.099503929990602646e-01 8.839157929738451491e-01
1.089011955438293100e+00 9.470419645006421527e-01 7.380446749483196012e-01
8.727332161275098699e-01 5.985275871361803723e-01 8.795541680340610569e-01
9.589735573184152706e-01 6.780208508639600229e-01 9.216806532854042722e-01
1.212980910378841148e+00 9.789509900418348343e-01 8.404686837324684134e-01
1.053193250066949416e+00 9.473943926301671148e-01 8.621586397533071988e-01
1.088961891971934826e+00 8.448960610188127607e-01 8.428009015079578337e-01
8.495437842304653930e-01 8.278984584884729880e-01 8.475526913631893366e-01
1.253681798475738685e+00 9.003352933426580496e-01 8.720522391976546217e-01
1.197077993270089014e+00 9.632461313408244852e-01 8.442327454152604993e-01
1.088490332902281921e+00 5.996820619211491454e-01 8.778321372676181067e-01
1.209387379885285441e+00 8.569818996138034439e-01 8.559121205637081342e-01
9.216570807995316805e-01 5.129144612939364745e-01 7.337134308321745513e-01
9.457959232325890975e-01 6.144639917031580190e-01 7.534623497871859588e-01
1.147854287500185144e+00 6.038436782007208237e-01 8.003847568799430379e-01
8.067046391352306056e-01 9.854781416873821254e-01 8.275340356926448315e-01
8.959032959539658947e-01 5.121016425168397612e-01 8.567626573830107173e-01
1.132360596558827037e+00 6.076474442704884460e-01 8.941328815683688980e-01
8.908298313764553278e-01 9.298253601705543936e-01 6.987384608005009490e-01
8.815444063894382065e-01 5.329017799252226961e-01 6.676461967257160124e-01
8.995540767456404740e-01 7.844658930116773510e-01 8.144711739490240188e-01
7.799214111804084748e-01 8.475491538687061066e-01 8.123531603138187673e-01
8.837307809544268089e-01 6.379172820706973113e-01 8.448356113240131915e-01
9.970443582179753239e-01 6.110418226328199198e-01 7.981823138353207892e-01
8.188967109111127129e-01 6.973193734241521780e-01 7.629249753525348954e-01
9.303607919685008554e-01 6.740064392301601259e-01 8.113227844176089665e-01
1.052968636216725651e+00 7.061952946850755808e-01 8.655904669932910078e-01
7.978859607884385419e-01 9.723629980096785141e-01 7.365688604219834401e-01
1.238664514995282850e+00 9.039757979285070189e-01 7.859411188600926579e-01
1.181216298552134170e+00 8.411655758055180954e-01 8.399863683897219602e-01
9.897275100940905457e-01 8.239374690377589960e-01 7.205061224378801477e-01
1.080916778229609410e+00 5.049183867976230200e-01 9.008078828672345661e-01
8.462883852269109664e-01 8.435570535772958234e-01 9.106906061353200466e-01
1.145019692526430433e+00 9.475582017826625902e-01 8.791208526633288445e-01
1.153414654857959576e+00 5.094140188980643691e-01 8.238434042766298315e-01
1.161696903619161780e+00 5.095474252694622841e-01 7.769423145486553661e-01
1.217474295095947845e+00 8.608537027992797519e-01 8.403394857010502150e-01
8.824199882275078899e-01 5.329145041859587595e-01 7.163686461498821600e-01
1.243210105485327510e+00 9.510427649306985032e-01 7.161295238097342697e-01
7.967932209115791142e-01 7.327217890477047968e-01 8.288087008931215305e-01
1.037561123631737026e+00 9.631571872091546638e-01 9.169181221835882578e-01
1.021693246246736297e+00 9.512379543746113386e-01 9.164735082004509259e-01
7.721683277168038817e-01 8.473278621790671927e-01 8.360040727494475465e-01
1.253780844709606601e+00 9.750155512025281412e-01 8.214717479665425426e-01
9.027648757134479895e-01 8.040307465400755582e-01 7.874257474297652326e-01
9.933114046636145611e-01 4.891699743539325573e-01 8.444867527951134267e-01
1.045623073039227080e+00 4.967607538171227022e-01 9.159861849435020353e-01
1.161166733234751280e+00 8.332057784884630003e-01 8.398192996784507036e-01
8.078405403020263442e-01 7.248705891347766439e-01 8.177323474031545913e-01
8.591459040462730012e-01 8.348939683313920668e-01 6.895837957636405946e-01
9.178890192861683950e-01 7.842594117286301181e-01 7.532242082983493514e-01
1.065105612637499366e+00 8.756793261082616020e-01 6.532622903272686798e-01
1.072474208900776382e+00 6.668770851525682719e-01 8.461913074145024360e-01
1.060913925474476383e+00 6.749080497622332864e-01 8.421895397036509578e-01
1.237794412263490074e+00 8.766578423504665096e-01 8.444480888380448969e-01
1.013435469966279978e+00 8.124923685458047551e-01 7.635609056814706141e-01
1.222614096325205013e+00 8.960934864652994047e-01 7.779862824878733818e-01
7.532283800850114730e-01 9.509202783174868223e-01 8.571234902764535146e-01
9.656834252171335731e-01 9.424265655870597280e-01 7.392720994549204505e-01
1.177035432209064592e+00 9.513680774432102805e-01 8.322071252365675909e-01
1.033652554670328350e+00 7.061011255427570577e-01 9.040885353685356174e-01
1.028691447733319553e+00 4.816093129164533693e-01 8.295760933498359524e-01
8.755230875043866767e-01 5.992435578745786140e-01 7.189230681030140957e-01
1.168992940913432532e+00 5.566113017161508081e-01 7.810820689221626978e-01
1.029048494219459986e+00 8.203407000928270021e-01 7.061349663918538022e-01
1.253068570114568292e+00 9.476392912530997581e-01 9.193401569869752432e-01
1.261237665464700841e+00 9.358471354516960661e-01 9.114966537467555918e-01
1.249710190285007627e+00 8.727927601067400065e-01 8.759084794437220767e-01
1.048649960484339339e+00 5.170714374611429243e-01 7.093766597918826911e-01
8.540782797645121160e-01 8.394088213916133245e-01 8.910386716030634924e-01
1.105032615239828209e+00 4.976363693117691334e-01 8.582773967048853425e-01
1.041382458434573888e+00 8.050504710822676824e-01 8.185830006981873463e-01
9.776203939726386682e-01 9.307502282472281951e-01 7.281563076032491200e-01
1.217017575349303549e+00 9.475927785555897653e-01 8.561906885575112369e-01
1.242114200046056549e+00 8.883420067606297987e-01 8.092501760282362344e-01
1.168984773891504680e+00 9.868917230405067631e-01 9.029762903528207874e-01
8.570799100234860468e-01 5.985118642415852008e-01 8.631048396289400237e-01
1.021125531720424640e+00 9.471176591791374832e-01 8.147302437925524332e-01
1.036835404847954445e+00 5.248310000462985681e-01 8.533286228285387187e-01
9.267934472137631108e-01 6.979154762860284578e-01 8.113129917369186206e-01
8.574786125594215935e-01 8.697312174951563613e-01 6.453242167592575518e-01
1.088916440839739597e+00 8.992980340409447715e-01 6.460037699730083460e-01
7.878958774628679329e-01 9.428307126009772832e-01 7.862101320864749443e-01
1.257050476295690000e+00 9.633350742622406315e-01 9.076612939487007647e-01
9.500990118204941659e-01 7.611713488302993547e-01 8.281598315154756751e-01
1.257355210318466421e+00 9.200797495739057030e-01 9.192700937914504156e-01
1.101055119453409281e+00 9.475913316109446649e-01 9.020510060497572979e-01
8.104233969909823143e-01 9.424411566063679579e-01 7.634734539926051333e-01
1.044494972821455647e+00 6.034962429724903821e-01 8.458545708282410036e-01
1.005276992574542172e+00 7.257252925347191796e-01 8.448493567658605929e-01
8.469885031549445609e-01 9.447411733367794273e-01 6.970214115227761908e-01
9.736929349117360299e-01 6.980943481974025699e-01 8.285190131195201424e-01
1.196597967496660475e+00 5.365979286297485329e-01 9.298404886545454939e-01
9.183551140031120941e-01 8.081100840048861533e-01 7.648018755770706889e-01
8.374862569678462876e-01 9.085573238452412381e-01 6.451520442355925811e-01
1.261517051935735267e+00 9.161378015872321257e-01 8.956965178297942032e-01
1.097260615857985844e+00 4.976425014939500624e-01 7.958444684957770576e-01
9.966117780747014709e-01 5.602590496122628050e-01 7.592508497211269969e-01
1.012781446145683883e+00 6.468132421851171543e-01 8.257214952450326884e-01
9.776916205100444346e-01 6.386903820962609446e-01 8.598621809804199989e-01
1.045826440829583870e+00 5.328080035966493710e-01 6.634422570279265852e-01
1.113230255055445816e+00 8.331745277806292815e-01 8.549787522275360541e-01
8.065855225164371145e-01 8.396825145702963011e-01 8.175787341763282035e-01
1.073237175833004375e+00 4.936923562866392667e-01 7.916716520681901237e-01
1.021626492806696485e+00 7.773132652095464667e-01 9.044636102535952293e-01
1.101207877895395759e+00 8.290551385176184729e-01 9.293404593482958997e-01
9.901998335829799158e-01 7.097027993142173141e-01 8.990603333541804520e-01
9.060224905184808275e-01 9.333203540046454139e-01 6.802910091648761703e-01
1.156545706180803768e+00 9.745293691607104236e-01 7.545210402463374821e-01
9.545354108816059835e-01 9.432741860137316969e-01 8.207342509793504881e-01
9.982425738450702024e-01 5.520818086789809342e-01 9.025859997406633362e-01
9.538466894356143477e-01 7.250729659003148919e-01 7.851306572384082472e-01
7.565445031179344193e-01 5.325508377277986538e-01 8.508025488307442430e-01
9.151269666836558958e-01 8.318735003740244105e-01 7.802523242719771046e-01
9.554722937942800032e-01 8.005600550596507770e-01 9.182715765081639336e-01
1.028995642328769833e+00 5.602914510983922902e-01 8.491477030037853924e-01
8.112461195615776610e-01 5.641361968166601626e-01 7.502987512563000783e-01
9.859258805253736657e-01 4.890467973918871669e-01 8.637071975649734945e-01
1.097074068979225547e+00 5.094651579917318651e-01 7.566902130580436259e-01
1.141225299582766084e+00 8.332085991862249186e-01 8.945485306093361455e-01
1.045267995232302294e+00 8.128572262969411266e-01 7.758583483613579190e-01
1.037036798426507200e+00 5.170658709860809221e-01 6.783334279321124871e-01
9.568456677407590760e-01 5.602130929398430048e-01 7.078313482686189317e-01
8.177332798595656760e-01 9.352941262408138723e-01 6.624069015840150509e-01
1.177465117886737023e+00 8.643256721346301852e-01 7.310407766538860042e-01
1.209669400141130335e+00 9.041146611605679340e-01 7.042633281499468545e-01
1.092579347220028474e+00 5.525468158966035936e-01 8.816684328798740644e-01
9.983870260283316256e-01 5.874534613485189460e-01 9.107406992969220294e-01
1.013096835932872475e+00 9.426684472638433565e-01 7.101358668695423315e-01
7.839874256079044645e-01 8.556607963608238165e-01 8.007128240281196074e-01
7.690869221499267994e-01 8.595731990608030948e-01 8.000794210849508925e-01
1.048518650963778498e+00 5.251044336832119130e-01 7.328524031158923924e-01
1.049317851736659035e+00 5.010091079360214916e-01 8.926647335104418435e-01
8.627290102220126489e-01 8.504812373502549372e-01 6.639252235295350912e-01
7.603755439242501080e-01 5.124938761471480309e-01 9.027397273924739896e-01
8.945938319702555486e-01 8.312434834179109888e-01 6.950122795948531218e-01
1.139387325913131743e+00 8.523757874948998392e-01 7.037334775894623640e-01
1.068826398186738524e+00 5.211945652552059105e-01 7.487004203543106140e-01
9.354156412317194969e-01 6.897032968004347397e-01 9.130058743241266095e-01
1.243421356291430246e+00 9.747114089361390565e-01 7.317430868562981860e-01
1.148762509763026962e+00 9.631866663362184111e-01 8.437298057372191185e-01
8.493431753573050802e-01 7.055039344827823689e-01 8.040752847904584222e-01
1.129079281991166805e+00 5.094508336604527399e-01 8.197259107318313198e-01
1.083780899703212341e+00 6.231091025649144743e-01 7.918938666194350606e-01
9.496127250016900279e-01 5.010731046488474671e-01 7.964990211819890087e-01
9.154871750438160483e-01 6.300097602250283035e-01 8.968521078330412566e-01
1.249726664487758709e+00 9.237951262692087884e-01 8.289151073011860049e-01
1.088703308031632400e+00 8.561297535301797268e-01 6.877113657933546786e-01
1.057081476624524896e+00 7.933358807232946397e-01 8.737665569177526237e-01
8.925600505187716305e-01 8.123738299671907637e-01 8.926432318413226596e-01
7.701061793885314311e-01 9.399103346411722404e-01 6.597003835281969319e-01
9.301534665335561280e-01 7.684847868124838888e-01 7.767179246953983540e-01
9.630489771454442405e-01 7.133618955855969279e-01 9.139977507000808243e-01
8.985436592842830361e-01 6.028326149826124247e-01 7.279892656752362523e-01
8.642706049987893824e-01 6.540213228570379567e-01 8.445068953766232678e-01
1.185240602798994569e+00 8.647494187520201603e-01 8.204238834717287876e-01
7.466533989860195675e-01 9.000748650911065685e-01 7.208643772301662755e-01
1.065076484483984398e+00 5.917654024229478393e-01 8.967826906400065967e-01
8.322698777206454235e-01 5.123967322014404413e-01 9.088165148093803047e-01
8.872066784848602339e-01 6.099969967822735928e-01 7.738773654037136573e-01
9.671594800348299881e-01 5.795132020200600698e-01 9.252682625266950289e-01
1.068269991348120618e+00 6.708113488356134413e-01 8.227537472463034574e-01
1.061017358128499399e+00 7.417189009779451281e-01 8.892225580257266948e-01
8.163357285036983990e-01 9.793262930156709789e-01 7.151668057555750080e-01
9.287619192306650895e-01 5.164284209548190008e-01 6.611333975354367620e-01
8.498961206400555968e-01 5.040859611051049516e-01 8.668182834339555054e-01
1.080733439329768064e+00 5.603894755324214660e-01 7.254938294814927691e-01
1.141233506254907937e+00 8.407376546776184068e-01 7.577262391401373698e-01
8.488416748437069836e-01 5.632787669386405405e-01 8.004237515668208847e-01
9.188350706191912298e-01 9.590919012678891242e-01 8.393687222994816732e-01
8.357612529388399603e-01 9.304740752712932217e-01 7.188650533856584257e-01
8.614596037463927436e-01 9.548526647819106650e-01 9.037411495149643148e-01
1.200845680411667171e+00 5.130711552501588946e-01 9.063466664467516587e-01
1.061063788528763485e+00 8.126211367066644709e-01 7.565861805792759576e-01
1.032745385443395225e+00 5.366311024882097769e-01 8.415577598834753648e-01
9.364789320649622439e-01 5.126376550836120316e-01 6.844090096330466277e-01
7.910803302468067955e-01 9.858408012721645575e-01 8.821611237540757378e-01
1.009534545197236843e+00 8.202573120770244586e-01 7.325029641687221815e-01
1.065293863553351539e+00 8.092104264904598221e-01 8.307883022750304214e-01
9.510620067041466452e-01 7.450094534690905324e-01 8.942617106877439603e-01
9.656173900914308827e-01 9.344537836030319955e-01 7.163440876410815950e-01
1.212875914768719365e+00 5.132379454878360781e-01 8.712295328790364835e-01
1.001656617042103292e+00 7.847117407904165010e-01 7.673274330542972921e-01
8.417630055536274858e-01 7.016172648876689566e-01 8.277553115481324220e-01
1.208819030033456698e+00 5.132204198628481651e-01 8.830406214269660436e-01
1.148553759686682607e+00 5.369045474208234969e-01 8.198132290318451698e-01
8.567412068327290298e-01 6.976059469502682298e-01 8.163520955277423496e-01
1.140927603933973744e+00 4.972724559618713069e-01 9.172987918982229427e-01
8.257602925453387810e-01 8.314936913370121196e-01 8.065978039972130365e-01
9.730009409399658082e-01 5.052516685132275587e-01 7.815929643888458456e-01
7.599492349694296767e-01 5.442761398110058657e-01 8.431887556458337318e-01
1.218704868985828860e+00 8.842670471181306446e-01 7.702259505272044393e-01
1.168841192168748933e+00 5.013758314948166817e-01 8.590930580795712590e-01
1.242103084427686577e+00 9.749676731084144787e-01 7.551374912679558182e-01
1.008976116197719319e+00 8.479554516978051737e-01 6.829877392657561774e-01
9.227602825272838150e-01 9.350999612629863345e-01 7.961388501667976403e-01
1.136496573327379966e+00 5.996913034177639990e-01 9.176570516347986040e-01
8.498092599311708462e-01 9.469710796869895697e-01 9.113374551114292732e-01
9.726131590835074281e-01 5.642476888376704025e-01 7.197714535404486913e-01
9.257128147564985809e-01 5.762571984660085356e-01 7.296606010228379180e-01
1.065140765779303500e+00 9.429019081688574389e-01 7.454590614453286967e-01
1.172693393279818252e+00 9.191071125132446173e-01 6.348398635090880537e-01
8.265413390529242621e-01 5.082887990839002335e-01 7.754609186784271468e-01
9.615629064993430619e-01 5.989967051531045472e-01 7.578373338945911808e-01
1.045189166919038515e+00 8.403184250148804102e-01 7.563076000218876827e-01
7.462057780413254848e-01 9.347822500364679765e-01 7.405649754840271104e-01
9.246957923072141039e-01 8.586998955251662347e-01 6.468828522527398928e-01
9.148245775560768234e-01 6.501347039196830879e-01 8.617780694371477423e-01
1.120298000250596893e+00 9.743340715395747420e-01 7.347232898055182648e-01
8.500491400357741423e-01 5.787473776790437174e-01 9.059266474377021261e-01
7.598564027539393972e-01 5.405567921583250834e-01 8.272735017880273878e-01
8.256975926480782935e-01 9.576530175170089310e-01 7.606055362415629073e-01
1.124791171963067216e+00 9.589435965303955145e-01 7.656378273298991566e-01
9.671487563081072603e-01 8.748998152684375196e-01 6.591798663299536232e-01
8.449226787981882758e-01 8.235429059141712305e-01 7.568874552057385241e-01
8.990530981395067345e-01 9.307212701487541651e-01 7.758179635084798687e-01
8.300311243012370443e-01 5.322837800527232544e-01 7.633892885761552893e-01
8.855561986886254511e-01 9.168408282733860881e-01 6.427538619901590478e-01
9.616431917274365082e-01 6.661067184992051082e-01 7.850778565241565143e-01
9.269193430970044112e-01 9.593205045462660507e-01 8.590693703466341091e-01
9.075928556747510090e-01 5.551702706583838687e-01 8.687660144277500329e-01
1.189961746642580698e+00 8.488878659218939138e-01 7.933033469993647779e-01
9.415584870997193434e-01 9.176600959733244300e-01 6.480043396654622256e-01
1.057091836395481099e+00 8.444438963786249364e-01 7.682076415190490781e-01
9.657913872165003744e-01 6.505903387604069499e-01 8.281869508785119072e-01
7.555023462063775730e-01 9.375956270455292341e-01 6.646828391508911027e-01
9.268153313654415859e-01 6.859338353406084776e-01 8.269200882831478916e-01
9.692404507732266250e-01 9.344133874120370553e-01 6.939102637579663835e-01
9.399439983594237713e-01 5.004111450223952540e-01 9.244614387697027702e-01
8.551912882773655689e-01 9.303389970497865091e-01 7.200269438843994729e-01
1.238531834315005575e+00 9.197195473226447149e-01 7.703359540227130431e-01
8.490745580687359961e-01 5.865924237188765433e-01 8.551426215741275705e-01
8.992623249405138353e-01 9.546870871715318341e-01 7.995362425793139938e-01
8.295865697934203808e-01 9.815621624007113688e-01 8.203851846021861238e-01
8.765571106743763607e-01 4.923344325955058554e-01 8.252725725709129101e-01
8.205148622246383194e-01 9.494787818163499260e-01 7.256202258029909036e-01
9.638486088110287398e-01 9.338355937783457961e-01 6.745933797557901457e-01
9.703002705566809993e-01 9.630658760807513374e-01 9.077628107560343773e-01
9.270592152195323843e-01 7.768592939200493763e-01 8.276378682642560047e-01
1.009477360368075338e+00 4.891466527667445163e-01 8.642322894946848910e-01
8.913748161872284692e-01 8.313202990794107405e-01 7.327214673179598403e-01
9.027543167693250492e-01 6.255541699778162101e-01 7.743204141255071171e-01
8.036156760531993903e-01 9.429923929245653813e-01 9.218430244108644089e-01
1.005586852540064191e+00 8.163211144807391850e-01 7.518100665553839601e-01
1.057074531382438121e+00 6.074591603896329906e-01 9.083363427985866601e-01
8.145447336096930391e-01 9.783110889876596161e-01 8.868134532686069438e-01
9.137644534802845664e-01 9.291926680496762625e-01 6.657201181640627352e-01
9.306120664380090890e-01 9.390757908471466520e-01 8.081982417234515603e-01
8.428822886703852824e-01 5.082158399243646985e-01 8.898614622903573412e-01
9.696599564890513445e-01 8.516812724892056652e-01 6.821817653373271062e-01
1.161903441582420093e+00 8.563414566829793406e-01 7.309537902947418342e-01
1.007820568811075290e+00 5.129611555294888436e-01 7.358640900061073076e-01
9.580716735571804810e-01 9.474356100646874612e-01 8.326275454854938918e-01
8.414555138086936559e-01 8.657440885509998241e-01 6.557976239722548284e-01
7.296885343526933188e-01 9.392392253685167836e-01 8.968236899679222773e-01
9.352796557522338183e-01 5.123268980320047072e-01 8.854027859908808473e-01
9.878439608090319179e-01 8.713253344117362076e-01 6.634249582102293985e-01
8.791314895943805885e-01 6.100545810383519729e-01 7.419819945489480872e-01
9.741323892955511266e-01 8.200053078263864759e-01 7.510579384240199108e-01
9.774463571973553977e-01 8.002179609485240430e-01 7.241877925902373558e-01
8.261193621144770072e-01 6.141868091687939790e-01 8.182887689953403099e-01
1.132823539544829172e+00 9.741266260878131966e-01 6.812054979632649054e-01
8.414198845913838376e-01 9.386673269954532994e-01 7.963262152194190424e-01
8.347515857923082372e-01 5.082069235825548148e-01 8.739862459274264639e-01
7.918251180170938763e-01 8.275285585506246822e-01 8.765285515129246363e-01
9.472342651644515277e-01 7.728754734923088954e-01 8.788623079546077355e-01
9.271803779737733953e-01 7.448449885752517208e-01 8.621172807038991470e-01
9.230783307229875057e-01 6.898888077885461101e-01 8.501148946283469954e-01
1.213915950939724375e+00 9.395266477218553458e-01 7.935812999538063295e-01
9.134808023060303483e-01 8.977629596784197918e-01 6.401106072180734463e-01
9.661224010320900168e-01 9.552915917112656530e-01 8.720515837436600970e-01
7.500284378989787726e-01 9.233464041954327906e-01 7.206996905285365518e-01
8.336250522190278289e-01 7.005844430961024605e-01 7.236874825899819452e-01
1.128946564426970056e+00 5.015062472718974096e-01 8.586815997434598113e-01
9.542619341366114227e-01 6.585873467656765401e-01 8.357188981844752007e-01
9.806812293774778144e-01 5.169738845649751724e-01 7.585210220686855465e-01
7.626955233846461901e-01 5.096685624354838628e-01 7.877691566324647177e-01
7.709216712428781371e-01 5.557975081662127614e-01 8.231248480162607351e-01
8.415359416890351163e-01 7.015654695772012284e-01 7.920510901752632060e-01
1.013230222018114635e+00 7.295690188160240952e-01 8.567310102458856047e-01
8.108028246396199457e-01 9.667145151557583471e-01 9.024522713689577813e-01
9.066768407617666892e-01 8.195736854961945816e-01 7.293321003853294737e-01
8.188644347150481062e-01 5.004769900806490535e-01 8.183369919541036985e-01
1.065421854443233896e+00 5.759354322559329109e-01 9.240135427668656476e-01
1.065133609376776480e+00 9.428377471641031793e-01 7.223512159142776445e-01
7.859983470550917506e-01 5.483483810509892642e-01 8.241062055593547653e-01
1.082669767659775850e+00 8.600862299487601614e-01 7.070351956211327060e-01
9.525236521694404601e-01 5.166284592798459085e-01 7.116756204895671178e-01
1.013438592190085696e+00 9.349346307496561037e-01 7.366169470559351673e-01
8.031658434564681315e-01 9.742447686253388195e-01 9.221115245929882853e-01
1.049290976268542064e+00 8.090838706732108587e-01 8.619311609446178579e-01
8.587389812796668576e-01 9.291453195855975400e-01 6.936271427172125970e-01
1.234869521765824985e+00 9.552168070858587656e-01 7.900528033027947039e-01
9.093228934367034721e-01 5.164967016196603256e-01 6.762770914298141811e-01
9.816208601421723134e-01 7.450418025397123056e-01 7.976784250879196403e-01
8.604753360620314151e-01 6.933147698999754249e-01 7.846373443058349828e-01
9.416747230843813821e-01 8.316253494970611282e-01 6.851274740413904052e-01
9.885654656049844835e-01 5.563507259289203200e-01 6.739877634288181651e-01
1.132800272246160533e+00 9.152151436785940231e-01 6.690112635218014026e-01
9.674880936293427380e-01 9.179682152483592539e-01 6.409833558254125485e-01
8.316342823013893604e-01 9.711802929929314043e-01 6.854937072017317501e-01
8.561203683968190425e-01 5.637835804350668223e-01 7.731654707130488635e-01
1.253189565969072605e+00 9.515462763383113476e-01 8.761543403911731254e-01
7.981690374956429412e-01 9.612215193894662058e-01 7.437921635486290928e-01
9.433256335003792348e-01 6.620151380691896570e-01 9.250707196293628254e-01
9.305112802052273313e-01 8.041466162681348839e-01 7.576999283841956423e-01
7.765663871383869932e-01 9.736170066014304680e-01 6.787367457261841430e-01
8.525159580690386818e-01 6.216261574564087011e-01 7.799632855520881591e-01
9.280343320034067922e-01 8.203814516949672342e-01 9.057198676118285441e-01
1.177186086423430034e+00 8.568831040753273065e-01 8.320979718865932906e-01
1.040166069178126040e+00 5.330613600481646230e-01 7.365052609332973788e-01
8.064708817613037706e-01 8.355961812524658194e-01 7.617589464779992436e-01
1.129207014693611066e+00 5.134076532435646323e-01 7.804823194436740774e-01
9.191003194837903401e-01 4.926589442370946648e-01 8.151803816461360430e-01
8.426041138361142213e-01 8.354589804478248505e-01 9.222799384147075674e-01
1.048511773034845440e+00 4.896895627417700569e-01 8.026870834658280662e-01
9.659246746372571746e-01 9.514746252900417867e-01 8.446001740756503562e-01
8.494121114032952002e-01 5.865840138682050231e-01 8.784144871875901872e-01
9.236920394972122361e-01 7.603686644864620092e-01 8.778678054435681277e-01
9.971981807610461601e-01 8.199145045848752478e-01 6.825149320212069437e-01
7.342734114769058351e-01 9.195769573739120961e-01 8.684012751509910810e-01
8.540807251683906198e-01 8.315293382046606840e-01 9.066541836766298657e-01
7.999891243084004122e-01 5.556752813108873923e-01 8.246003366657892464e-01
9.739559679748568399e-01 8.318943108173298961e-01 7.470071713478946274e-01
7.493218637137361027e-01 9.741159287713601067e-01 8.330909694304324820e-01
9.463632301915875233e-01 7.492164280659312503e-01 8.356269783849494814e-01
7.802701950193708935e-01 9.520129942630217723e-01 6.815949510190613125e-01
7.896688939393541329e-01 5.049176203036659372e-01 8.562694753883526300e-01
9.812242953023264658e-01 6.302271672815104031e-01 7.935734321950936865e-01
9.811543993523252905e-01 7.883069236187412177e-01 7.435641837253716968e-01
8.523486977919093599e-01 6.615624883010008395e-01 8.124884502584762691e-01
9.414902619912822734e-01 5.285900965771829219e-01 7.461758142516886627e-01
8.114126283288423114e-01 7.095208223819280402e-01 7.905362952545681443e-01
8.058973094193808695e-01 8.575442990944350807e-01 6.707577399553028563e-01
7.559512951602900266e-01 9.422656571531426994e-01 7.094556562847553760e-01
8.991925737598975843e-01 9.345657783691574405e-01 7.562957400399124008e-01
1.041117961079839560e+00 8.205180691285496319e-01 7.407404303187746786e-01
7.568139264049827952e-01 9.697983343565497183e-01 6.837909036888487613e-01
9.884966678736935020e-01 5.211183474013615369e-01 7.704917502148775910e-01
1.052211752364960340e+00 5.682912718483286163e-01 7.443578878721133218e-01
1.193270020589275449e+00 8.530132956183353876e-01 8.440060211132542900e-01
9.137834523873415993e-01 5.204998839440959646e-01 7.449552658722414789e-01
9.211829924150827242e-01 5.682896106887934673e-01 6.760180081734482593e-01
1.017986889686898433e+00 6.308500176776109525e-01 9.270127368429408321e-01
9.111065518461318735e-01 5.357940859003067491e-01 8.572532550099343229e-01
8.225035973449463800e-01 9.548995635207018218e-01 6.662097607704060565e-01
8.188527000959835433e-01 5.006044952554133953e-01 7.946382373861826665e-01
8.624236076781910398e-01 5.172965112077408945e-01 6.856034377850499517e-01
9.614238891616549987e-01 7.961586295905744848e-01 7.314814891387517726e-01
8.066593530585765004e-01 9.743790861592243058e-01 8.392573285243243308e-01
8.224680428175741298e-01 5.983579028219118134e-01 8.497111828798951105e-01
8.862771114976661924e-01 8.465175527475818917e-01 6.606944758937374207e-01
8.453102670140679731e-01 7.090546816321235957e-01 7.643309866845511280e-01
1.157016974789588648e+00 5.605590258399175685e-01 7.730960397613899637e-01
1.000292828577207027e+00 5.642811989161125030e-01 7.048257172569759588e-01
1.221370800249308441e+00 9.277051689737355611e-01 8.208699549460071188e-01
1.145149187358140086e+00 8.133978239383548026e-01 8.396201744609617101e-01
1.131940624261417616e+00 6.195410398416266728e-01 8.237873312671237791e-01
8.449640505688602587e-01 5.835806777423510061e-01 7.369555772552591755e-01
9.305151751471516519e-01 7.570526896960060315e-01 8.157661125840924843e-01
1.060964223153725072e+00 5.565005073775348698e-01 7.097041666382788438e-01
7.603940594638505246e-01 9.778475708718497028e-01 8.414125087871355824e-01
9.119237897778622592e-01 6.340669552966931022e-01 9.160570203232506481e-01
9.934836820759262999e-01 6.785136812935436135e-01 8.367933336821746781e-01
1.049233803426654177e+00 6.510270481737576720e-01 8.964515846146176026e-01
8.602859251469034962e-01 6.617593243129684666e-01 8.285799281080061807e-01
8.028671353440788305e-01 5.208500956093846668e-01 7.217905693387043353e-01
1.201777622074135188e+00 8.960781751433806175e-01 7.118958126069714343e-01
9.294487937143758316e-01 5.367565890752041824e-01 7.264036422905275625e-01
9.486774419290345817e-01 5.365481613873707145e-01 7.116733025657361322e-01
9.214553045503115491e-01 6.688089477467789035e-01 7.214577130864907595e-01
9.819005647370145917e-01 6.307382048817613551e-01 8.832534218611632904e-01
1.068498468788936950e+00 5.054225583985836323e-01 7.719271103123537259e-01
9.976322795997152326e-01 7.967339650550928631e-01 7.944455100607883402e-01
7.646982573356417845e-01 8.513167818375269036e-01 8.238230716820748034e-01
8.074761151877420939e-01 5.367886274852488038e-01 7.337286842620152072e-01
1.088903919671086573e+00 9.111601415972879758e-01 6.573458695689172737e-01
9.193643622442138064e-01 7.806496024738749373e-01 8.464399101474913145e-01
8.073391375308156537e-01 6.066757852964583808e-01 7.852677986525616882e-01
1.092724007797436281e+00 8.014412890702646841e-01 8.430471420139955541e-01
8.484330526504988423e-01 6.178485429213866897e-01 7.596599192166949566e-01
1.135922283320276893e+00 6.195987020870243889e-01 8.120794409298023320e-01
9.891499300413471030e-01 6.545016726902801452e-01 8.094514148520048913e-01
8.531831346954134032e-01 9.354933496769536339e-01 8.405263649657078728e-01
1.073473600836426289e+00 8.283608509423516786e-01 7.069539168324512346e-01
8.186046363716883434e-01 9.390119024520193758e-01 8.034611057462570649e-01
1.141033708827981830e+00 8.053315489691776907e-01 8.238772936831340044e-01
1.077117204017319807e+00 8.132385793438201560e-01 8.271078043397472879e-01
9.271768325069885686e-01 7.058001661281168015e-01 8.701038061839170279e-01
9.610575350183685472e-01 5.839635500033054649e-01 7.385976749077927117e-01
1.245300463830454341e+00 9.514067294282193554e-01 8.289478418952156424e-01
7.582784095420184167e-01 8.760142928715024535e-01 7.846088766474242915e-01
9.271133451380417778e-01 6.898106719708753110e-01 8.853074797864741718e-01
9.108410549371726006e-01 5.398408470369616685e-01 8.143497825144807578e-01
1.033142698104713819e+00 4.894070316860533731e-01 8.608109995295212258e-01
9.935077635871231161e-01 7.099375955467959187e-01 8.368704708677185966e-01
1.049602543037449820e+00 9.346122015078998091e-01 6.686311201522275871e-01
1.169216173460862152e+00 8.293053614496275205e-01 8.635039929435450734e-01
1.140892096706540126e+00 9.630077030506962732e-01 8.006470770460526465e-01
8.297628002398299563e-01 5.635521296316394757e-01 7.594465724818530994e-01
9.265361311582016590e-01 4.932169063092408101e-01 7.997181812733520356e-01
9.895650640905848672e-01 6.824453277166966370e-01 8.250303449929263788e-01
8.467253299329287053e-01 9.180658515943954656e-01 7.004168034436959456e-01
9.514533072865478669e-01 7.766558139218930901e-01 9.063725276494924987e-01
8.753566838562931718e-01 5.288918556813079208e-01 7.465008393137518850e-01
1.041410814792068429e+00 9.470939271142646554e-01 8.071907880731530316e-01
8.605874696327204809e-01 8.197825784400969429e-01 8.049539750208639655e-01
7.589312001413813791e-01 9.216961187025345392e-01 6.615356649446315629e-01
1.194325291663328237e+00 9.039330383427237603e-01 7.427312719295322552e-01
1.253021346710029960e+00 9.790329130888579812e-01 8.958770827130843051e-01
9.099350706061610783e-01 5.801794846724300792e-01 7.133192825661793801e-01
8.111553639107685898e-01 9.471215186202890379e-01 8.152327321884590416e-01
1.045523134214501049e+00 9.227235990973960966e-01 6.497331799047803003e-01
1.164983365337821652e+00 8.291681649096896978e-01 8.123353660005405708e-01
9.038228199495836890e-01 7.766400731328335638e-01 8.379661088985712603e-01
1.072076518179280624e+00 5.955951646251333997e-01 7.681083361756448902e-01
9.946564256680501259e-01 7.848884821367455578e-01 9.235221710386765093e-01
1.117010513158968266e+00 9.552375874862391036e-01 8.159345392727670454e-01
9.541109442785764561e-01 8.238058826716833094e-01 7.465020257809285020e-01
9.527156495694401039e-01 5.166383251520645370e-01 6.580789878857271624e-01
1.184536339391323523e+00 5.524919674332328112e-01 9.180597924564799506e-01
9.147212583201069780e-01 9.424470350675229202e-01 7.609844085142674075e-01
1.036319434772643211e+00 6.071925891212490711e-01 7.950020234017244336e-01
1.193277124432217118e+00 8.528988687899365928e-01 8.205020647027256864e-01
8.488351196490715456e-01 5.554476516815448628e-01 8.238895104137576864e-01
1.021496933428127196e+00 8.010121672555151617e-01 8.259877888466582441e-01
7.729946215729277537e-01 8.637499221006169625e-01 9.082164023700689537e-01
8.376476782475400507e-01 9.469398142976268584e-01 8.121728207258092080e-01
9.821437985120200498e-01 9.551614068044700367e-01 8.882915825338476568e-01
8.263492033382255908e-01 8.394090930647346571e-01 8.582515075054053533e-01
1.005507885912101385e+00 8.082637347675842854e-01 7.017282429799406307e-01
8.211740202868620386e-01 9.421131770694879393e-01 7.366545113383007326e-01
9.083213444409059534e-01 8.284005376077561156e-01 9.048692792398712603e-01
1.173353494648289308e+00 5.174087768689675793e-01 7.614025502894812281e-01
1.037133614105329116e+00 6.350434049588091767e-01 8.883979465373916806e-01
8.524664829012003064e-01 5.753089541534327500e-01 7.726419385120932848e-01
1.057414607577107368e+00 5.839064494308479070e-01 9.160445177846654463e-01
8.756888466059826737e-01 7.012999871984892941e-01 7.814205664546379770e-01
9.695810599405361163e-01 5.205267957198214113e-01 6.391689460818450463e-01
7.696369250179802002e-01 8.596086397783169186e-01 7.562092551707930710e-01
1.216940799626173186e+00 9.552959563468553794e-01 8.286748086793559454e-01
1.001960780286221819e+00 4.928932132601456240e-01 8.875136822246157964e-01
7.894541769668939057e-01 5.010419438455682162e-01 8.326156048623607475e-01
9.031746726594997998e-01 6.024954139471178083e-01 8.139250761659728717e-01
1.108882616225085105e+00 8.172891199296258291e-01 8.981136717803939185e-01
1.097660124956724825e+00 8.366649666235260741e-01 7.342294966479983032e-01
7.897695310652019796e-01 9.421166061790322566e-01 7.119830761694041499e-01
1.016335852943475393e+00 5.013988878635693425e-01 7.128805625909997445e-01
8.190080754520753237e-01 8.394736195516734334e-01 8.777198366515006622e-01
1.180642850420499546e+00 5.684998834947119217e-01 8.398127366459823273e-01
8.519570265261147135e-01 5.132165666458580189e-01 7.263164134764353852e-01
1.092197793213417700e+00 6.510403700692557472e-01 8.348208696725345490e-01
1.202090345803084048e+00 8.762988341008448590e-01 7.506575967724542497e-01
7.990767479940982243e-01 9.858621069226144451e-01 9.021336145885783253e-01
1.153447620783323302e+00 4.936706957437241861e-01 8.121138713773041751e-01
9.312427473479012452e-01 7.806745368824923315e-01 8.587446466225068242e-01
1.181146835988189814e+00 8.451666329246033671e-01 8.753388351968347525e-01
1.208436638761868132e+00 9.389611267658156679e-01 6.733320785215326509e-01
8.528519539800869520e-01 9.737402209812902054e-01 8.133470922343082332e-01
1.197498415551319528e+00 8.685672486603838172e-01 8.010318412215651218e-01
1.116809525303532613e+00 5.606127571815692212e-01 7.218662884408091340e-01
9.771052786821672331e-01 5.838070481892523311e-01 7.544897684302975804e-01
1.053290926985297249e+00 5.207072196373807582e-01 9.043101961999353566e-01
1.193566797828466530e+00 8.763629650365599710e-01 7.854106214766813920e-01
9.103806624742204479e-01 6.217604575424712232e-01 7.631906116863991230e-01
7.508330707511386981e-01 8.918869394625877911e-01 8.405519700557309015e-01
9.223595313625476688e-01 7.921940721717233291e-01 7.609534532235784354e-01
9.853908423856559962e-01 6.070208992582526442e-01 7.900152553996558913e-01
1.025330363390343891e+00 9.515529809128216998e-01 8.694852487455018153e-01
8.585108145858743045e-01 9.175609878436284950e-01 6.789030389106263108e-01
1.156005685023529406e+00 5.999452882790617947e-01 8.239471598954749565e-01
9.339563215705062316e-01 5.089458659431369547e-01 7.803083965899095809e-01
1.213290434700693421e+00 5.290816355508954905e-01 8.244166921937382542e-01
1.056898862493706570e+00 4.974952687241893656e-01 8.576634956732289705e-01
1.064954781380319293e+00 4.897717924440072035e-01 8.031640900599017474e-01
8.964235962014543979e-01 5.590874389327861183e-01 8.957093149058424908e-01
8.848828686293994661e-01 6.025062871249475815e-01 8.954594761429099936e-01
9.352199231663163026e-01 9.514046956834637525e-01 9.141879011377995745e-01
9.061124817500532114e-01 6.568001957372044952e-01 7.280603124035334162e-01
9.967859218133519050e-01 6.227528160027826498e-01 8.060114703833848315e-01
1.160107479619465032e+00 5.880368493507363015e-01 8.669393601177255437e-01
8.228874526352075724e-01 9.429496278782331098e-01 8.748531913956895112e-01
1.145145646501845249e+00 5.409010580204898222e-01 7.651028573101708030e-01
1.221100653200168251e+00 9.594077561094377371e-01 8.994827215059163494e-01
9.855580390380238587e-01 9.350415810490384505e-01 7.826963781991364000e-01
1.133283310513733877e+00 5.172962675433461222e-01 7.415033867621380059e-01
1.025669914911254921e+00 5.837968389507933731e-01 9.036710799375993197e-01
1.088696820150150568e+00 5.722074999861954669e-01 8.777375846477966093e-01
8.927406046826724673e-01 5.120358209720847764e-01 9.070883507505504983e-01
1.013367858975106506e+00 8.910769659485198169e-01 6.415197591888406325e-01
9.938647399938163041e-01 7.178237931919969617e-01 8.797557655843784019e-01
9.040296972449035628e-01 5.120008841198911975e-01 8.724904275104954365e-01
9.424683165793636963e-01 7.255719744945129390e-01 8.237542452809129001e-01
1.009983009400545750e+00 7.335186425769195662e-01 8.957990642747997168e-01
1.105106032682066530e+00 9.514409328667214893e-01 8.786789252126954164e-01
1.113008201871349634e+00 9.394646273531849223e-01 7.963024448314619530e-01
8.842723595352119936e-01 9.473244226818018365e-01 8.534911567042946512e-01
9.898532141809490703e-01 7.771474130336841757e-01 8.370308444559838579e-01
1.253123002481219661e+00 9.554089395155832554e-01 8.525249739277835914e-01
9.693430931892692559e-01 4.973212734433158921e-01 8.008707415235464255e-01
1.065072074089281617e+00 6.510256582262948788e-01 9.084634756762861585e-01
9.023148808274699118e-01 5.205518347145222657e-01 7.671830021217062034e-01
1.068997427078367091e+00 9.515461651678720489e-01 8.898580333841357159e-01
8.107916727864872275e-01 9.583977650607711229e-01 7.995060114084908687e-01
1.103903414037052944e+00 6.392825573465691358e-01 8.037689282514295375e-01
1.023814453653174805e+00 5.210261724112160708e-01 7.245177575193595398e-01
7.744951954373189285e-01 5.716451848046846251e-01 8.033150825809557416e-01
7.508912791090730510e-01 9.276197757838073876e-01 7.930565442560629785e-01
9.023457563566824602e-01 8.075216081649023714e-01 7.290976242360167614e-01
8.731920908171648676e-01 8.161343042061278696e-01 8.797842333276220117e-01
1.149064440607903359e+00 9.584803900116685149e-01 6.961787482677150862e-01
8.280015146940165049e-01 9.718581431341047905e-01 7.045023949336906011e-01
9.693963655566446569e-01 5.323222725724107152e-01 6.354267796735383333e-01
1.141368715327883088e+00 9.465627534584217795e-01 6.460574289299674255e-01
1.080345725708561577e+00 6.075187067117557849e-01 8.660088221613444492e-01
1.075992147645025154e+00 5.917634442325965249e-01 7.564074763744743635e-01
7.732859925515831456e-01 5.169466459055109819e-01 7.589485660704932135e-01
7.535777925218642981e-01 8.756042575919349424e-01 8.761031812538614405e-01
9.736875904317661146e-01 6.821579815805204339e-01 8.012784420798100271e-01
1.068974612529813406e+00 5.369227429500037507e-01 6.788161204705693841e-01
9.182822673395316659e-01 7.922476476499985543e-01 7.722869291285281435e-01
1.217618674433468051e+00 8.647051710729689589e-01 8.168314545394886883e-01
1.213145252215821257e+00 9.358194133823588556e-01 9.190316629943683369e-01
1.234115691902613943e+00 8.921698099079972133e-01 7.896871841292401051e-01
1.089051508831721859e+00 9.507670210529034494e-01 7.265830902402065083e-01
7.627791143340462154e-01 5.256818848727607962e-01 7.787469786353028445e-01
1.044226915246368792e+00 5.642916604636348810e-01 7.249154959594265035e-01
8.422291721942146703e-01 8.354513509225803825e-01 8.709422176027137308e-01
1.093034102897946669e+00 9.473330680420638528e-01 7.922791512040024964e-01
8.421955561897656040e-01 9.626207784229978692e-01 8.993916286825991424e-01
8.686576063482942534e-01 5.317759210971491068e-01 8.713244705596032702e-01
7.693091643641114530e-01 9.308752460698591635e-01 7.576731124762321468e-01
1.221190052444828922e+00 8.806850505144326879e-01 9.306409038304833681e-01
8.530971582785044083e-01 5.045083059606515485e-01 7.730892002996188062e-01
1.233284877000027979e+00 8.728320679915781977e-01 9.229101125469192368e-01
1.125045492122247914e+00 8.092825786989887860e-01 8.080446342173212004e-01
9.540123360412551268e-01 9.218808259957977924e-01 6.520243648814649795e-01
7.904238225671571527e-01 9.436107879296560252e-01 6.644895454692207881e-01
9.420374589151416789e-01 7.451369649832786379e-01 8.005796195113492608e-01
1.073413900523938480e+00 4.970339857450999932e-01 9.165056308671996055e-01
1.021160486611160323e+00 9.427150871388375597e-01 7.217417366306555504e-01
1.177059161478827942e+00 5.487591373247409088e-01 7.850347134760847778e-01
1.145030448799523981e+00 9.433942997950583997e-01 7.811751006566063360e-01
1.213084953461735838e+00 9.315652210576456094e-01 8.130345197174433380e-01
9.068341967843484008e-01 9.189727917592200868e-01 7.720967602488495451e-01
1.216990656542580984e+00 5.211705683464999961e-01 8.596117614838596488e-01
7.467720753030211434e-01 9.117422352728841162e-01 8.488181180638696421e-01
1.004049438555589813e+00 5.169405651302931837e-01 7.630299789461811866e-01
1.129038799122960457e+00 9.475883471255266421e-01 8.593441292264720754e-01
8.120134547449415763e-01 8.427514619881550928e-01 7.044616587614771497e-01
9.723650096040989954e-01 5.127655406237987545e-01 6.697443885238217876e-01
1.161823041365018572e+00 8.802081565892077020e-01 6.962245745209000303e-01
1.173155317347537530e+00 5.724026957983475716e-01 7.850174450011747629e-01
1.205313830072987091e+00 8.452133013414120377e-01 8.991426390870855823e-01
1.233088083768364651e+00 9.475043793838340278e-01 8.444935452723033587e-01
9.143841770997205298e-01 5.988185608346783262e-01 7.442253058987380321e-01
1.049216406203811847e+00 6.430787935641222308e-01 9.080536842628222916e-01
9.084791378108776350e-01 5.324592125385817498e-01 6.568481875055265373e-01
1.117275825648329057e+00 8.292205986289400421e-01 8.746165325555932402e-01
1.008258732257699464e+00 5.563388197996289586e-01 7.281904330668396153e-01
8.073552262966052773e-01 6.023604337273384957e-01 8.129447119953587819e-01
1.007079753166002956e+00 9.225792990603036703e-01 6.564560474833791570e-01
1.160829461140080232e+00 5.841438711069384393e-01 7.850271907701298346e-01
1.182302179591177449e+00 8.488272165400465585e-01 7.698808207744820553e-01
7.392981344155316048e-01 9.390830232363116536e-01 7.765719050303809823e-01
8.601404402138893568e-01 5.401763521613529573e-01 7.735465728916424144e-01
1.225434802658982747e+00 5.093881462115151804e-01 8.243945897353597285e-01
1.005812868901335921e+00 7.772033684756960437e-01 8.218385274123138906e-01
9.094574146245755220e-01 5.721617762587811740e-01 6.906971364198796204e-01
8.572825099791552272e-01 8.968719442251849028e-01 6.383908554746398067e-01
1.081050188289399250e+00 8.091707478069660731e-01 8.624025918426496684e-01
7.958536712915079692e-01 5.789121880570667900e-01 8.167467288452328056e-01
1.140742770313285082e+00 9.231209860884574958e-01 6.729010311356483642e-01
1.021970290588867236e+00 5.201662337350807519e-01 9.269014718885615345e-01
1.045353221061444682e+00 9.514275795046294171e-01 9.051846000578184226e-01
1.021801184271555085e+00 7.216981757737165326e-01 8.999354509159105397e-01
9.151207259244362735e-01 5.946570356122834466e-01 8.341055987624830248e-01
1.230013480518385327e+00 8.962759099523576189e-01 8.130762230976061877e-01
1.064325116622415912e+00 6.549638574235761013e-01 8.344697817836275178e-01
