0.38708367943763733 0.9189561605453491 0.665073037147522
0.38186758756637573 0.43407464027404785 0.5791771411895752
0.3264172375202179 0.43003877997398376 0.444293737411499
0.5696094036102295 0.3593200743198395 0.4530102610588074
0.3739376962184906 0.4337565302848816 0.5723503828048706
0.37561744451522827 0.4291357100009918 0.5772172212600708
0.3819182515144348 0.43319663405418396 0.5815614461898804
0.5209203362464905 0.43588846921920776 0.5397560000419617
0.36745578050613403 0.43343865871429443 0.5804339051246643
0.3862360417842865 0.4351164400577545 0.5877848267555237
0.3817925453186035 0.428816020488739 0.5770165324211121
0.28383907675743103 0.43689748644828796 0.3738305866718292
0.36940237879753113 0.4342261552810669 0.5785923004150391
0.4192872643470764 0.5352713465690613 0.6217231750488281
0.37652599811553955 0.43514594435691833 0.5882711410522461
0.376556932926178 0.42981308698654175 0.5814021229743958
0.42525801062583923 0.3989242613315582 0.24902032315731049
0.5520743131637573 0.41407138109207153 0.6450737714767456
0.37518635392189026 0.42884325981140137 0.5790686011314392
0.5315482020378113 0.37553349137306213 0.48215338587760925
0.3746168911457062 0.43152377009391785 0.5818747878074646
0.37639719247817993 0.430310994386673 0.5852451324462891
0.47412213683128357 0.10786070674657822 0.45344650745391846
0.36422020196914673 0.4255271852016449 0.5795449018478394
0.47222161293029785 0.42331159114837646 0.3702462613582611
0.3760189414024353 0.6262013912200928 0.6000829339027405
0.34984490275382996 0.4502509832382202 0.5863392353057861
0.4971756339073181 0.38893112540245056 0.3243047595024109
0.5851982831954956 0.4311485290527344 0.6693543791770935
0.49734726548194885 0.37899690866470337 0.24084757268428802
0.37504327297210693 0.4308539032936096 0.5868359208106995
0.6292433142662048 0.45208823680877686 0.30989038944244385
0.5037647485733032 0.4400250017642975 0.6657576560974121
0.34502121806144714 0.681760847568512 0.6387534141540527
0.5178951025009155 0.41470468044281006 0.6335323452949524
0.5475010871887207 0.4381619691848755 0.39937180280685425
0.3258802592754364 0.4070078730583191 0.21603809297084808
0.36276981234550476 0.42892125248908997 0.5794651508331299
0.36325547099113464 0.4268515408039093 0.5712316036224365
0.6014856100082397 0.41236060857772827 0.6311802864074707
0.3788451850414276 0.4311501383781433 0.5707632899284363
0.27242815494537354 0.665822446346283 0.4974890649318695
0.37599799036979675 0.42720162868499756 0.580508291721344
0.38136371970176697 0.4291514754295349 0.5774077773094177
0.3782985210418701 0.4233033061027527 0.5828352570533752
0.382567822933197 0.42587077617645264 0.583633303642273
0.364012748003006 0.42852404713630676 0.5833249688148499
0.6030024290084839 0.8351423740386963 0.6061432957649231
0.46193158626556396 0.33844372630119324 0.4907768666744232
0.37383589148521423 0.4305052161216736 0.577025830745697
0.36435437202453613 0.43957316875457764 0.5798025131225586
0.5570119023323059 0.3833116888999939 0.5235278606414795
0.5458376407623291 0.41799232363700867 0.5678513050079346
0.37736234068870544 0.4281128942966461 0.5794190764427185
0.5282799005508423 0.36413028836250305 0.3205719590187073
0.6733371019363403 0.4255959987640381 0.201654851436615
0.37335821986198425 0.43794283270835876 0.567841112613678
0.37006625533103943 0.4176137149333954 0.581855058670044
0.38544708490371704 0.42660635709762573 0.5765893459320068
0.6352447867393494 0.40120983123779297 0.4365852475166321
0.3143082559108734 0.37129491567611694 0.41793930530548096
0.29956555366516113 0.37975919246673584 0.48514798283576965
0.4541555643081665 0.3109666705131531 0.36748382449150085
0.38427576422691345 0.4298364818096161 0.5843706130981445
0.7115291953086853 0.508033812046051 0.44284340739250183
0.37053191661834717 0.4297456741333008 0.5779632329940796
0.5975848436355591 0.4509597420692444 0.6101222038269043
0.46031028032302856 0.8026289939880371 0.6119453310966492
0.3787233531475067 0.42754608392715454 0.5896649360656738
0.7490042448043823 0.38099560141563416 0.43562570214271545
0.37971651554107666 0.43569687008857727 0.5845016837120056
0.7157113552093506 0.9524685144424438 0.6202456951141357
0.38821715116500854 0.42875346541404724 0.5925716757774353
0.4318142831325531 0.39422956109046936 0.5260139107704163
0.37606874108314514 0.42948076128959656 0.5848602652549744
0.37762412428855896 0.43101656436920166 0.5821122527122498
0.3785017430782318 0.42886292934417725 0.5870627164840698
0.2589455842971802 0.4949655830860138 0.35833317041397095
0.34629249572753906 0.423180490732193 0.6114756464958191
0.36801278591156006 0.42961740493774414 0.5790557265281677
0.7068923711776733 0.41672483086586 0.5063690543174744
0.3774472773075104 0.4272915720939636 0.5754054188728333
0.38041141629219055 0.4324984848499298 0.5921408534049988
0.38259071111679077 0.4326897859573364 0.5915464758872986
0.3719252645969391 0.4326247572898865 0.5709728598594666
0.36180874705314636 0.42462703585624695 0.5874242186546326
0.3663328289985657 0.4201655983924866 0.5778594017028809
0.37231096625328064 0.4316632151603699 0.5768799185752869
0.403501957654953 0.40762487053871155 0.6215049028396606
0.2932816743850708 0.5031077265739441 0.40159836411476135
0.38542354106903076 0.43128305673599243 0.5776771306991577
0.6055476069450378 0.38950562477111816 0.48021817207336426
0.3852497637271881 0.4258366525173187 0.5832736492156982
0.6416196823120117 0.40072959661483765 0.3339260220527649
0.3824284076690674 0.4277082085609436 0.5879782438278198
0.6398404240608215 0.5894277095794678 0.5541890859603882
0.390648752450943 0.4336732029914856 0.5891385674476624
0.3723291754722595 0.42465659976005554 0.5728294849395752
0.3813215494155884 0.4288646876811981 0.5846713781356812
0.3712388575077057 0.43330398201942444 0.5770418643951416
0.5449850559234619 0.16865821182727814 0.4866672456264496
0.3677094578742981 0.3854202926158905 0.35789796710014343
0.5366640686988831 0.1724204123020172 0.48239317536354065
0.528510570526123 0.38011297583580017 0.2538520395755768
0.5003678202629089 0.35846343636512756 0.6152070164680481
0.36749953031539917 0.4320859909057617 0.5716865062713623
0.38658758997917175 0.43217113614082336 0.5865615606307983
0.45503899455070496 0.42052730917930603 0.32416898012161255
0.5939406752586365 0.3508884608745575 0.48223719000816345
0.679162323474884 0.3649505376815796 0.6375150680541992
0.3606054484844208 0.41674190759658813 0.5720787644386292
0.3807356357574463 0.42499035596847534 0.5870892405509949
0.36782410740852356 0.4339619576931 0.5873222351074219
0.36414414644241333 0.43149974942207336 0.5709562301635742
0.37571653723716736 0.4249749481678009 0.5757526755332947
0.7102392315864563 0.38337549567222595 0.5106267333030701
0.5083422064781189 0.2647930979728699 0.46709632873535156
0.5720571279525757 0.0658172145485878 0.44158560037612915
0.37459424138069153 0.3640110492706299 0.47514063119888306
0.5514613389968872 0.3380764424800873 0.49101677536964417
0.3845125734806061 0.4308082163333893 0.5863807201385498
0.34550654888153076 0.6288836002349854 0.5585426092147827
0.4728845953941345 0.4729539752006531 0.537955105304718
0.4618082642555237 0.7109375596046448 0.648455023765564
0.33793383836746216 0.7417590022087097 0.5663328170776367
0.36707961559295654 0.4343758225440979 0.5852926969528198
0.3719841539859772 0.4242182672023773 0.588047981262207
0.317014217376709 0.8032983541488647 0.5954338908195496
0.3850891590118408 0.4320175051689148 0.5841145515441895
0.3731386363506317 0.4316471219062805 0.5787120461463928
0.41856148838996887 0.940891444683075 0.6192616820335388
0.3783096969127655 0.431809663772583 0.5750148892402649
0.6489194631576538 0.03951207548379898 0.3391150236129761
0.3790118098258972 0.42937713861465454 0.5754054188728333
0.5589670538902283 0.06685148924589157 0.5027992129325867
0.374420702457428 0.4257218837738037 0.5900304317474365
0.3805330693721771 0.42757540941238403 0.5752115845680237
0.37240922451019287 0.43565833568573 0.5770215392112732
0.37581509351730347 0.4278077483177185 0.5802967548370361
0.3691328167915344 0.4231473505496979 0.5849896669387817
0.3768951892852783 0.4282301664352417 0.5797262191772461
0.3859236538410187 0.43076714873313904 0.590530514717102
0.36518004536628723 0.4231332838535309 0.5727012753486633
0.4397590756416321 0.35761702060699463 0.47604134678840637
0.3751850426197052 0.42656925320625305 0.5725330114364624
0.37647804617881775 0.4270523190498352 0.5826231837272644
0.3672710061073303 0.4281816780567169 0.5803380608558655
0.4099990725517273 0.08054843544960022 0.3513209819793701
0.3508172631263733 0.3730538487434387 0.5852305293083191
0.3705129623413086 0.42761290073394775 0.5696035027503967
0.3783356547355652 0.4341769814491272 0.5835132598876953
0.3745802342891693 0.4323023557662964 0.5799182057380676
0.6801652312278748 0.7433958053588867 0.5786823034286499
0.37897711992263794 0.4326326549053192 0.5813326239585876
0.36984437704086304 0.4319301247596741 0.5784067511558533
0.45731693506240845 0.13169007003307343 0.4995872378349304
0.3772880434989929 0.4363415837287903 0.5746346116065979
0.43394821882247925 0.9777141213417053 0.6442288160324097
0.3800809979438782 0.4327286183834076 0.5734850764274597
0.7505664825439453 0.417086660861969 0.5343426465988159
0.43682795763015747 0.43878307938575745 0.2613750696182251
0.3754897713661194 0.42416760325431824 0.5907601118087769
0.37733033299446106 0.4332394599914551 0.5734330415725708
0.3734743893146515 0.4271169900894165 0.5745962858200073
0.6132340431213379 0.44343942403793335 0.46858465671539307
0.298810213804245 0.5892954468727112 0.314736932516098
0.670676589012146 0.3731802999973297 0.5912820100784302
0.3773755133152008 0.4332916736602783 0.5830811262130737
0.37425029277801514 0.4440939426422119 0.5838850140571594
0.37346121668815613 0.4316771626472473 0.5832015872001648
0.39993053674697876 0.32457420229911804 0.3667758107185364
0.3829508423805237 0.42837879061698914 0.5968518853187561
0.6196790933609009 0.3759637176990509 0.3952171504497528
0.36726754903793335 0.43130746483802795 0.5736427307128906
0.685256838798523 0.41689836978912354 0.3245232403278351
0.36839979887008667 0.4227517545223236 0.5795656442642212
0.3711737096309662 0.43078210949897766 0.5845018029212952
0.4960213303565979 0.9008040428161621 0.6785084009170532
0.37513864040374756 0.4227553904056549 0.5755639672279358
0.3775038719177246 0.4305846095085144 0.5823610424995422
0.3749828636646271 0.42701613903045654 0.5813711285591125
0.3737616240978241 0.3960849642753601 0.5859155654907227
0.3775721788406372 0.4267871081829071 0.581322431564331
0.37486732006073 0.3613412380218506 0.5020242929458618
0.6521966457366943 0.08555947989225388 0.49013346433639526
0.3797539174556732 0.44171369075775146 0.5824280977249146
0.650081217288971 0.023994194343686104 0.4445394277572632
0.3811242878437042 0.4269145131111145 0.5795146822929382
0.5125190019607544 0.3478240370750427 0.42042747139930725
0.4394519031047821 0.37601521611213684 0.22216057777404785
0.37245744466781616 0.4231869578361511 0.583905816078186
0.36703771352767944 0.427347332239151 0.5764132738113403
0.37201887369155884 0.4184328019618988 0.5875499248504639
0.3681707978248596 0.4340583384037018 0.5780154466629028
0.37537023425102234 0.4299331605434418 0.5790857076644897
0.37673094868659973 0.43303948640823364 0.5879734754562378
0.3715842068195343 0.4314318299293518 0.5885648131370544
0.3809792697429657 0.4286009669303894 0.5778483748435974
0.3749021291732788 0.4329233467578888 0.571809709072113
0.36656948924064636 0.4331984221935272 0.5791946053504944
0.3662659227848053 0.4211079180240631 0.5776389837265015
0.7331010103225708 0.44463926553726196 0.580528736114502
0.3694981336593628 0.43131810426712036 0.5802546143531799
0.36987432837486267 0.4358769953250885 0.5856804847717285
0.3720354437828064 0.4358425438404083 0.592176616191864
0.36426350474357605 0.4221932888031006 0.5748956799507141
0.36808207631111145 0.42288288474082947 0.5812427401542664
0.3901318311691284 0.4325155019760132 0.5706846714019775
0.3702560067176819 0.4344659447669983 0.5755560398101807
0.36571523547172546 0.4255702495574951 0.5674375891685486
0.3872959315776825 0.4276275634765625 0.5953043699264526
0.3772639334201813 0.4361575245857239 0.5823688507080078
0.3849601447582245 0.4313334822654724 0.5790266394615173
0.5028619766235352 0.7577871680259705 0.6625946760177612
0.3659456670284271 0.4265674948692322 0.5739936232566833
0.37142494320869446 0.44045552611351013 0.5765016078948975
0.3082083463668823 0.5131301283836365 0.25719329714775085
0.37724485993385315 0.43192580342292786 0.5743192434310913
0.38704362511634827 0.43508440256118774 0.5885636210441589
0.37855929136276245 0.43316203355789185 0.5814510583877563
0.3729275166988373 0.4285270571708679 0.5811699628829956
0.6178658604621887 0.4044440984725952 0.37426093220710754
0.37635302543640137 0.4324071705341339 0.5833979845046997
0.37697067856788635 0.4284874200820923 0.5756852030754089
0.36560821533203125 0.4272536039352417 0.5803350806236267
0.607100248336792 0.42632031440734863 0.27727362513542175
0.3829764127731323 0.43314486742019653 0.5820127129554749
0.37942153215408325 0.4295995831489563 0.5853235125541687
0.37642592191696167 0.427168607711792 0.5852665901184082
0.6469030976295471 0.325523316860199 0.3943481743335724
0.382401704788208 0.42909693717956543 0.5815339088439941
0.6693553924560547 0.41798898577690125 0.36739063262939453
0.3798421323299408 0.42826777696609497 0.5818357467651367
0.37874260544776917 0.4293712377548218 0.5858654379844666
0.48008689284324646 0.435624361038208 0.6545892357826233
0.368925005197525 0.4331415891647339 0.5808754563331604
0.5864251255989075 0.5427275896072388 0.5716989636421204
0.48338302969932556 0.41676419973373413 0.20307664573192596
0.39288976788520813 0.7727009654045105 0.5892201662063599
0.3704322278499603 0.43160924315452576 0.5827703475952148
0.37587350606918335 0.4268491864204407 0.5859082937240601
0.38635945320129395 0.4332959055900574 0.5793607831001282
0.3829990327358246 0.4322092533111572 0.5760042667388916
0.3802286684513092 0.4287935197353363 0.5694990158081055
0.2376922070980072 0.4126969277858734 0.49509334564208984
0.37704312801361084 0.42534807324409485 0.5829309225082397
0.3843228220939636 0.8569617867469788 0.5900422930717468
0.5346432328224182 0.3241986036300659 0.392917662858963
0.3696114718914032 0.4288983643054962 0.5763528943061829
0.648720383644104 0.1117582842707634 0.39505302906036377
0.5668677091598511 0.6779811978340149 0.6431249380111694
0.37519991397857666 0.43214330077171326 0.574787974357605
0.3884579539299011 0.42504143714904785 0.5970568060874939
0.38095229864120483 0.428860604763031 0.5720698237419128
0.3760005533695221 0.4320489168167114 0.5740672945976257
0.38423627614974976 0.4337456524372101 0.5726559162139893
0.38585925102233887 0.9705462455749512 0.6409987807273865
0.6335473656654358 0.3531809151172638 0.45273062586784363
0.3770821988582611 0.42903101444244385 0.5875113010406494
0.37587061524391174 0.4319444000720978 0.579188346862793
0.3749353289604187 0.43202993273735046 0.5897530317306519
0.3712765574455261 0.4281429052352905 0.5826837420463562
0.5812343955039978 0.466031014919281 0.537020742893219
0.46289026737213135 0.43504050374031067 0.5787178874015808
0.38063502311706543 0.4206843078136444 0.5916328430175781
0.37361568212509155 0.42741838097572327 0.5815980434417725
0.37440225481987 0.4253312945365906 0.5780975222587585
0.681075930595398 0.35752204060554504 0.35310661792755127
0.38298118114471436 0.9771772027015686 0.5961818099021912
0.37723013758659363 0.4296190142631531 0.5921508073806763
0.3688106834888458 0.4321993887424469 0.5795079469680786
0.3658324182033539 0.43152064085006714 0.59100741147995
0.33184635639190674 0.43103843927383423 0.5739964246749878
0.3615616261959076 0.4319799244403839 0.571446418762207
0.3706177771091461 0.43438026309013367 0.5849022269248962
0.3651708662509918 0.43902286887168884 0.5738293528556824
0.3586423993110657 0.5292830467224121 0.5664287209510803
0.3798169493675232 0.4383569657802582 0.5838376879692078
0.3877727687358856 0.4326711893081665 0.5808372497558594
0.4571719765663147 0.3747684359550476 0.39239874482154846
0.29160118103027344 0.38753145933151245 0.4387478232383728
0.37177494168281555 0.4358745515346527 0.5922049283981323
0.3762158155441284 0.42356032133102417 0.5784857273101807
0.2502296268939972 0.41241970658302307 0.34334826469421387
0.3791777193546295 0.4229549467563629 0.5776601433753967
0.7800427675247192 0.5984366536140442 0.5579739212989807
0.3824164867401123 0.4280228614807129 0.5719403028488159
0.37762632966041565 0.4289189279079437 0.5835795998573303
0.34979209303855896 0.4037648141384125 0.5560483336448669
0.6370609998703003 0.3836211860179901 0.6215003728866577
0.3757195472717285 0.4332774579524994 0.5824528336524963
0.3619043529033661 0.4323725998401642 0.5731915235519409
0.4522288143634796 0.6239932179450989 0.5724225044250488
0.3714539706707001 0.428886353969574 0.5828880667686462
0.30287235975265503 0.6461183428764343 0.5882593393325806
0.45065099000930786 0.42319613695144653 0.5516707301139832
0.518672525882721 0.4101272523403168 0.23943720757961273
0.3669202923774719 0.42507773637771606 0.5788548588752747
0.4189155697822571 0.3626892566680908 0.5747699737548828
0.6334449052810669 0.3821740746498108 0.5456699728965759
0.3776392638683319 0.43857043981552124 0.5807945728302002
0.37400177121162415 0.43007999658584595 0.5776665210723877
0.37251779437065125 0.4310404360294342 0.577765166759491
0.37417981028556824 0.4364238977432251 0.5884175300598145
0.3911423087120056 0.4330808222293854 0.5826176404953003
0.37014925479888916 0.4320055842399597 0.5846281051635742
0.568004846572876 0.44942033290863037 0.44723594188690186
0.3699662685394287 0.42984166741371155 0.5796836018562317
0.37144964933395386 0.42563945055007935 0.580203652381897
0.36960166692733765 0.426337867975235 0.5767971277236938
0.37453722953796387 0.42262303829193115 0.5744337439537048
0.38616806268692017 0.4318176805973053 0.5811372399330139
0.3841201663017273 0.43721508979797363 0.5729228258132935
0.38059908151626587 0.4338524639606476 0.5749119520187378
0.7578004002571106 0.4522101879119873 0.4288482666015625
0.44369274377822876 0.3780387043952942 0.6207231879234314
0.37255653738975525 0.42731034755706787 0.5803496241569519
0.40871238708496094 0.5547235012054443 0.5925294756889343
0.36743709444999695 0.37207305431365967 0.4340499937534332
0.37913978099823 0.4344250559806824 0.5816552042961121
0.26748573780059814 0.6245825290679932 0.4278255105018616
0.3505164384841919 0.5639215111732483 0.6097167134284973
0.4030562937259674 0.4252500832080841 0.583419144153595
0.37920087575912476 0.42223113775253296 0.576721727848053
0.3777029514312744 0.42257601022720337 0.5782557129859924
0.4678671061992645 0.38042551279067993 0.334832102060318
0.3805239796638489 0.4299129247665405 0.5797638893127441
0.3715835213661194 0.4341895580291748 0.5794808864593506
0.5299149751663208 0.40215709805488586 0.27235087752342224
0.3770531117916107 0.42611950635910034 0.5784141421318054
0.36577895283699036 0.43552133440971375 0.5829121470451355
0.3719402849674225 0.4264242649078369 0.5823015570640564
0.3836416006088257 0.42848554253578186 0.5853261351585388
0.37282952666282654 0.4305115044116974 0.5799850821495056
0.3642709255218506 0.4285084009170532 0.5691850185394287
0.38222748041152954 0.43412914872169495 0.5876936912536621
0.3740783631801605 0.4284473955631256 0.5844091773033142
0.5946846604347229 0.8966078758239746 0.5792235136032104
0.38167518377304077 0.42763975262641907 0.5797642469406128
0.6778203845024109 0.38072121143341064 0.5464408993721008
0.38067570328712463 0.43293440341949463 0.592323362827301
0.3807171881198883 0.4331716299057007 0.5738393068313599
0.372968465089798 0.4316728115081787 0.5761056542396545
0.37260276079177856 0.42710933089256287 0.5712683796882629
0.658340334892273 0.46493080258369446 0.39604997634887695
0.6019837260246277 0.38597777485847473 0.24677622318267822
0.38355180621147156 0.43041127920150757 0.5898834466934204
0.3744201958179474 0.43067580461502075 0.5766699314117432
0.4381306767463684 0.746140718460083 0.6142091155052185
0.3681923747062683 0.4310644567012787 0.5828998684883118
0.4012923538684845 0.7387501001358032 0.5530229806900024
0.36208197474479675 0.4198218882083893 0.5757066607475281
0.7398583889007568 0.6063297986984253 0.33151575922966003
0.37828510999679565 0.42496034502983093 0.5736455917358398
0.36927980184555054 0.4284297823905945 0.5799211859703064
0.552128791809082 0.3466050624847412 0.24301494657993317
0.3665505051612854 0.4278107285499573 0.5868785977363586
0.5855957269668579 0.4041271209716797 0.592404842376709
0.38257887959480286 0.42451906204223633 0.5842930674552917
0.5044354796409607 0.8532974123954773 0.6504192352294922
0.3830999433994293 0.4233512580394745 0.5879876613616943
0.6094520092010498 0.3832169771194458 0.2681225836277008
0.3753437399864197 0.42855310440063477 0.5818709135055542
0.5542604327201843 0.568513035774231 0.6163017749786377
0.4509950876235962 0.5378882884979248 0.6088495850563049
0.6821045279502869 0.8073124885559082 0.5723939538002014
0.37609803676605225 0.4329141676425934 0.5808306932449341
0.3744134306907654 0.42110776901245117 0.5928987860679626
0.5166457295417786 0.6784642338752747 0.6650969982147217
0.3848585784435272 0.4307282567024231 0.5765223503112793
0.5655630826950073 0.16147655248641968 0.4247056841850281
0.49361008405685425 0.35877859592437744 0.2990242838859558
0.38763734698295593 0.45802363753318787 0.38319724798202515
0.34752652049064636 0.45998814702033997 0.5301326513290405
0.26904189586639404 0.40839993953704834 0.5830681324005127
0.3880253732204437 0.35954925417900085 0.4003848433494568
0.3754864037036896 0.42807719111442566 0.5708839893341064
0.3688316345214844 0.4255787134170532 0.5699073672294617
0.3783586621284485 0.4283430278301239 0.5814273357391357
0.37788620591163635 0.4299127459526062 0.5778420567512512
0.3769298791885376 0.42211103439331055 0.5777170062065125
0.3765113055706024 0.42028963565826416 0.5980010628700256
0.7131084203720093 0.43603068590164185 0.43277469277381897
0.37472161650657654 0.4288959503173828 0.5922421216964722
0.37608009576797485 0.42232319712638855 0.5683673620223999
0.3766743242740631 0.42178523540496826 0.5750911235809326
0.45350342988967896 0.44164955615997314 0.5290844440460205
0.37162259221076965 0.4283214807510376 0.5888376235961914
0.38314899802207947 0.42985451221466064 0.5821008682250977
0.390346884727478 0.43204519152641296 0.5871456265449524
0.631188154220581 0.3780454993247986 0.507851243019104
0.37658971548080444 0.43444812297821045 0.5784863233566284
0.38402631878852844 0.42870110273361206 0.5890383720397949
0.377578467130661 0.42102858424186707 0.5726086497306824
0.4924776554107666 0.3410045802593231 0.41588926315307617
0.37621426582336426 0.4272655248641968 0.5759963989257812
0.3819802403450012 0.43278419971466064 0.585228681564331
0.3769453763961792 0.4349875748157501 0.5828828811645508
0.5544636845588684 0.4492487907409668 0.35689255595207214
0.34074699878692627 0.8622338771820068 0.6129521131515503
0.4472655653953552 0.4377358555793762 0.3952051103115082
0.37719371914863586 0.4925561547279358 0.5838570594787598
0.3845096230506897 0.42124345898628235 0.5804703235626221
0.382915198802948 0.43181511759757996 0.5850434899330139
0.5280628800392151 0.6072807312011719 0.6605431437492371
0.5097963213920593 0.08868607878684998 0.43822938203811646
0.3812577426433563 0.42801937460899353 0.5782366991043091
0.3674575984477997 0.418324738740921 0.5798559784889221
0.37914952635765076 0.42868927121162415 0.5811758637428284
0.36884814500808716 0.43231409788131714 0.5755853652954102
0.46984001994132996 0.5960108041763306 0.6004911661148071
0.3699702322483063 0.4309338331222534 0.581303060054779
0.3694196343421936 0.4289756417274475 0.5737667083740234
0.32980793714523315 0.3879450559616089 0.3134521245956421
0.34450826048851013 0.3962610363960266 0.24985741078853607
0.35971343517303467 0.43052729964256287 0.58981853723526
0.3789471387863159 0.4273300766944885 0.5823277831077576
0.3855326175689697 0.4195546507835388 0.5824264883995056
0.3887508511543274 0.4191039502620697 0.5832436680793762
0.3733324408531189 0.4362742006778717 0.5806118249893188
0.3717871904373169 0.4247288107872009 0.5763363838195801
0.3175630569458008 0.8687338829040527 0.6509037017822266
0.6768283247947693 0.5961113572120667 0.620471715927124
0.3701699376106262 0.4241845905780792 0.5794796943664551
0.6729966998100281 0.3678317368030548 0.4158294200897217
0.3858710825443268 0.4274715781211853 0.591254711151123
0.36803051829338074 0.4250374436378479 0.5802546143531799
0.37189677357673645 0.42447948455810547 0.5785539746284485
0.3673805296421051 0.42930489778518677 0.575912356376648
0.6906120181083679 0.38592106103897095 0.3805008828639984
0.3837962746620178 0.4265715479850769 0.5777308940887451
0.37422385811805725 0.43523287773132324 0.5768294930458069
0.3798322081565857 0.4319313168525696 0.5800518989562988
0.5129618644714355 0.13186846673488617 0.5381866693496704
0.3810833692550659 0.420895516872406 0.5955941081047058
0.3682681620121002 0.4269627034664154 0.5816348791122437
0.3831610381603241 0.42329031229019165 0.5768638849258423
0.38231736421585083 0.43118783831596375 0.5767936110496521
0.37810763716697693 0.42776554822921753 0.5664646029472351
0.610943615436554 0.7946960926055908 0.5910072922706604
0.36849549412727356 0.42097118496894836 0.574730396270752
0.37631818652153015 0.4307759702205658 0.5815487504005432
0.37266671657562256 0.4317299723625183 0.5849684476852417
0.44873446226119995 0.8784627318382263 0.5772377252578735
0.3635196387767792 0.4302387535572052 0.5793978571891785
0.38268449902534485 0.4234331250190735 0.5859962701797485
0.3696461319923401 0.4269910454750061 0.5878573060035706
0.6357781887054443 0.3648170530796051 0.4561997652053833
0.37419310212135315 0.43218109011650085 0.5733577013015747
0.3713947534561157 0.4284566640853882 0.5786538124084473
0.3719611167907715 0.4185153841972351 0.5875512957572937
0.3723513185977936 0.4280940294265747 0.5775748491287231
0.3709108233451843 0.42254936695098877 0.5786499381065369
0.6172266006469727 0.46420636773109436 0.5494077801704407
0.37463587522506714 0.4297029376029968 0.5769419074058533
0.47623157501220703 0.39267733693122864 0.5192868709564209
0.3742797076702118 0.4363744258880615 0.5727152228355408
0.3744056820869446 0.4315645694732666 0.5785393714904785
0.37209630012512207 0.42717015743255615 0.5771987438201904
0.37579774856567383 0.42632046341896057 0.5815908908843994
0.28515392541885376 0.40132465958595276 0.38050463795661926
0.37929022312164307 0.42861273884773254 0.5805400013923645
0.41383567452430725 0.46006959676742554 0.46386978030204773
0.375554621219635 0.7454724311828613 0.5731607675552368
0.42652031779289246 0.3582577705383301 0.3210470378398895
0.37606680393218994 0.43483859300613403 0.5954508781433105
0.3778283894062042 0.4301343262195587 0.5875083804130554
0.34025195240974426 0.4082593023777008 0.5666001439094543
0.3895362913608551 0.4327305257320404 0.5946560502052307
0.37609434127807617 0.4308048486709595 0.5826205015182495
0.37238791584968567 0.42750537395477295 0.5911751389503479
0.5713003277778625 0.36906561255455017 0.5969277620315552
0.5285618305206299 0.33481746912002563 0.3111816346645355
0.3729325234889984 0.4292164742946625 0.5904536247253418
0.5107024312019348 0.01365572027862072 0.4706082046031952
0.3618895411491394 0.42574256658554077 0.576546311378479
0.40710750222206116 0.9366940855979919 0.5808606743812561
0.37144070863723755 0.4311017692089081 0.5837089419364929
0.40453001856803894 0.4064563512802124 0.5862683653831482
0.5736947655677795 0.35896041989326477 0.35999739170074463
0.5123520493507385 0.3692448139190674 0.6570825576782227
0.4771479368209839 0.6957828402519226 0.611312747001648
0.47431671619415283 0.3630911111831665 0.6262210011482239
0.37699270248413086 0.4274367392063141 0.5806851983070374
0.36414679884910583 0.4175347685813904 0.5708405375480652
0.3683356046676636 0.42796075344085693 0.571723997592926
0.3832949995994568 0.43199485540390015 0.5879942178726196
0.37940672039985657 0.42085355520248413 0.5784791707992554
0.3210771083831787 0.35959166288375854 0.3652091920375824
0.32210221886634827 0.4284418523311615 0.5569427609443665
0.4088796377182007 0.38375768065452576 0.5519922375679016
0.38079050183296204 0.43274933099746704 0.5798346996307373
0.38763460516929626 0.4385390877723694 0.5948084592819214
0.3535419702529907 0.036451514810323715 0.26443248987197876
0.4107154607772827 0.8662365674972534 0.6230445504188538
0.6716988682746887 0.36974096298217773 0.5185633301734924
0.3816147446632385 0.43349361419677734 0.58371502161026
0.6188269853591919 0.6157668232917786 0.5608744621276855
0.731489896774292 0.3988385796546936 0.5189986824989319
0.37710216641426086 0.4371574819087982 0.5855346918106079
0.60572749376297 0.41619443893432617 0.3006112277507782
0.3705826699733734 0.3624298870563507 0.32433655858039856
0.3832857608795166 0.4353446066379547 0.5835619568824768
0.5827287435531616 0.43385443091392517 0.5408040881156921
0.3723660111427307 0.42949190735816956 0.5764018893241882
0.3650449216365814 0.874146580696106 0.5996487140655518
0.37123286724090576 0.4281901717185974 0.5737757682800293
0.4310153126716614 0.35704225301742554 0.5704686641693115
0.3620474338531494 0.4415169656276703 0.5881937146186829
0.6970443725585938 0.5431339740753174 0.5032113790512085
0.6383638978004456 0.012742585502564907 0.5224649310112
0.33120596408843994 0.9672449827194214 0.5982198119163513
0.368660032749176 0.4298488199710846 0.5794366002082825
0.38068220019340515 0.43156319856643677 0.5897992253303528
0.37519145011901855 0.4263998866081238 0.5770540833473206
0.37627631425857544 0.42740991711616516 0.5829347968101501
0.41300755739212036 0.4099184572696686 0.3510063588619232
0.365399032831192 0.4261150062084198 0.5823246836662292
0.38143324851989746 0.4299548268318176 0.5845213532447815
0.6425750255584717 0.6659402251243591 0.5918349027633667
0.37336277961730957 0.4343118965625763 0.5792520642280579
0.37776288390159607 0.4519915282726288 0.5757372379302979
0.3784595727920532 0.4243239760398865 0.567868709564209
0.38232389092445374 0.42706477642059326 0.5931994318962097
0.2963528335094452 0.6243652105331421 0.388517290353775
0.6530940532684326 0.42023831605911255 0.5331369638442993
0.3672686815261841 0.4326767325401306 0.5806465148925781
0.36333152651786804 0.4292721152305603 0.5801311135292053
0.37902429699897766 0.42812830209732056 0.59626305103302
0.3790576457977295 0.4280754029750824 0.5706880688667297
0.36948853731155396 0.42919138073921204 0.5769776105880737
0.6863313913345337 0.6494352221488953 0.592054009437561
0.3820697069168091 0.4264512360095978 0.5979351997375488
0.3844105005264282 0.43983107805252075 0.5821036696434021
0.3698979318141937 0.4313196539878845 0.5772274732589722
0.38334840536117554 0.43187883496284485 0.5840804576873779
0.3687255084514618 0.43028053641319275 0.5730867981910706
0.6917912364006042 0.5507747530937195 0.6340764164924622
0.3947981595993042 0.39425233006477356 0.5463578104972839
0.3704824447631836 0.3616105616092682 0.38762325048446655
0.5260967016220093 0.7058550119400024 0.6149014830589294
0.37203145027160645 0.42836201190948486 0.5755587220191956
0.5388229489326477 0.4214165508747101 0.5799320936203003
0.5442785024642944 0.3870384693145752 0.22144797444343567
0.6078656315803528 0.40191805362701416 0.6585460305213928
0.3814447224140167 0.4347553849220276 0.5814149975776672
0.6882604360580444 0.4108659327030182 0.37870705127716064
0.3814772665500641 0.42503517866134644 0.5743229985237122
0.4584023058414459 0.47835269570350647 0.579120934009552
0.3785472512245178 0.4396468698978424 0.5956082940101624
0.48001396656036377 0.2607437074184418 0.37578558921813965
0.3725786507129669 0.4331325590610504 0.5875028371810913
0.33276796340942383 0.43118220567703247 0.507675051689148
0.33486685156822205 0.37342819571495056 0.4017588198184967
0.41805827617645264 0.42037466168403625 0.42446836829185486
0.3751775324344635 0.43249642848968506 0.5829407572746277
0.37421077489852905 0.42529138922691345 0.5896037220954895
0.3821716606616974 0.4259226322174072 0.5870667695999146
0.368744432926178 0.43145713210105896 0.578757643699646
0.694002091884613 0.43053558468818665 0.29087740182876587
0.39862287044525146 0.9026025533676147 0.6169737577438354
0.3753708302974701 0.42093831300735474 0.5734803676605225
0.36663201451301575 0.42678770422935486 0.5701862573623657
0.5619041919708252 0.9792326092720032 0.6620606780052185
0.3819723427295685 0.43278712034225464 0.5689684152603149
0.6398455500602722 0.36993253231048584 0.4374410808086395
0.370303750038147 0.42985910177230835 0.5749374628067017
0.5402814149856567 0.32196691632270813 0.5030798316001892
0.3843996524810791 0.4313114881515503 0.581747829914093
0.440508097410202 0.40819162130355835 0.4525066614151001
0.6269206404685974 0.5644544363021851 0.5992507338523865
0.4881325960159302 0.6455857157707214 0.6416445970535278
0.36945825815200806 0.4462733864784241 0.5716789960861206
0.36792799830436707 0.43095138669013977 0.5701883435249329
0.5137545466423035 0.3601021468639374 0.4948473572731018
0.36601677536964417 0.43124622106552124 0.5980659127235413
0.3756216764450073 0.4250566363334656 0.5883989334106445
0.49440082907676697 0.31875133514404297 0.4876540005207062
0.33354276418685913 0.4288637042045593 0.4828214645385742
0.5029692053794861 0.3932993412017822 0.5588271021842957
0.36575058102607727 0.42128801345825195 0.5627471804618835
0.4932980239391327 0.2978612184524536 0.4262067675590515
0.3393913209438324 0.3789306879043579 0.37977299094200134
0.3769565522670746 0.43030843138694763 0.5721410512924194
0.5574933290481567 0.3716452717781067 0.34344783425331116
0.37827369570732117 0.43072396516799927 0.5782479643821716
0.38353732228279114 0.4267498850822449 0.5770247578620911
0.37551742792129517 0.42936626076698303 0.5899035334587097
0.4944054186344147 0.4867625832557678 0.6404638290405273
0.37695127725601196 0.4277365803718567 0.574255108833313
0.3681623935699463 0.42830583453178406 0.586758017539978
0.4345133602619171 0.4252616763114929 0.599939227104187
0.37422603368759155 0.42809104919433594 0.5846704840660095
0.40873825550079346 0.48711317777633667 0.5224244594573975
0.3716912269592285 0.432131826877594 0.5782981514930725
0.37945330142974854 0.4345620274543762 0.5862448811531067
0.38216835260391235 0.4301948547363281 0.5768488049507141
0.5741123557090759 0.5708814263343811 0.6344202756881714
0.3824606239795685 0.42549556493759155 0.5773276090621948
0.37861788272857666 0.43708106875419617 0.6008648872375488
0.3795163333415985 0.4292144775390625 0.5738287568092346
0.37904486060142517 0.4208783805370331 0.5759322643280029
0.362763911485672 0.43160027265548706 0.5867953896522522
0.37906160950660706 0.4210672676563263 0.5912200212478638
0.37595534324645996 0.4293355345726013 0.5802009701728821
0.47201356291770935 0.3797699809074402 0.25476810336112976
0.39517247676849365 0.4356606602668762 0.5770776271820068
0.3716423213481903 0.41670680046081543 0.5730646252632141
0.3670489192008972 0.43089956045150757 0.5863499045372009
0.3975541889667511 0.431854248046875 0.6300738453865051
0.36950063705444336 0.42915791273117065 0.5792165398597717
0.3898544907569885 0.4294971227645874 0.5885844826698303
0.503971517086029 0.38805651664733887 0.6217654943466187
0.37647271156311035 0.43277642130851746 0.577253520488739
0.5570719242095947 0.3992086350917816 0.368526816368103
0.3166602551937103 0.5778714418411255 0.6182754039764404
0.3616631329059601 0.4275205135345459 0.5767292976379395
0.3913605809211731 0.4366031289100647 0.589515209197998
0.43004196882247925 0.6183859705924988 0.6037419438362122
0.38346269726753235 0.43272510170936584 0.5818132162094116
0.6409844756126404 0.37833714485168457 0.3744487464427948
0.2542503774166107 0.6261963248252869 0.3617357611656189
0.39204227924346924 0.4332074224948883 0.5793247222900391
0.6292197108268738 0.38320958614349365 0.2725285589694977
0.5856781601905823 0.31586968898773193 0.45455873012542725
0.5145729184150696 0.6033953428268433 0.6063584685325623
0.3737965524196625 0.42356258630752563 0.5673608779907227
0.4255245625972748 0.7885630130767822 0.6539754867553711
0.28013503551483154 0.5331780910491943 0.27819743752479553
0.3791872560977936 0.42968207597732544 0.5802257061004639
0.3688409626483917 0.42782655358314514 0.5705729126930237
0.39878571033477783 0.6141118407249451 0.5754314064979553
0.543530285358429 0.9104377031326294 0.5980941653251648
0.3757416009902954 0.43716588616371155 0.5770552158355713
0.33577537536621094 0.47241511940956116 0.6103349924087524
0.325900673866272 0.629955530166626 0.5829118490219116
0.38141512870788574 0.43219611048698425 0.5778041481971741
0.37433093786239624 0.4254249632358551 0.5823450684547424
0.3770417869091034 0.4309001564979553 0.5863825678825378
0.36427098512649536 0.4292846620082855 0.570563793182373
0.379414439201355 0.42753779888153076 0.5856432318687439
0.5214011669158936 0.3908950090408325 0.5181707739830017
0.374446302652359 0.4230327606201172 0.5726143717765808
0.3806840181350708 0.414265513420105 0.5895839333534241
0.3645380735397339 0.42732059955596924 0.5883564949035645
0.3738820552825928 0.43227827548980713 0.5817921161651611
0.6859272718429565 0.6158638000488281 0.4309593737125397
0.30271369218826294 0.5436694025993347 0.6115083694458008
0.39146560430526733 0.43500468134880066 0.577284574508667
0.3743080496788025 0.4327352046966553 0.5731217265129089
0.4560079276561737 0.6805096864700317 0.5797939896583557
0.3288663923740387 0.36951693892478943 0.4384390413761139
0.38139915466308594 0.4266689121723175 0.5813866257667542
0.3781965970993042 0.4110574722290039 0.5808366537094116
0.619813859462738 0.9482530355453491 0.602973222732544
0.37321218848228455 0.43913406133651733 0.5923570394515991
0.46406418085098267 0.058546409010887146 0.2870537340641022
0.6584517955780029 0.540423572063446 0.5997960567474365
0.37856024503707886 0.43593159317970276 0.5823376774787903
0.46775877475738525 0.6175388097763062 0.5528811812400818
0.3679314851760864 0.429938405752182 0.575455904006958
0.4977540075778961 0.43508675694465637 0.2419581413269043
0.610018789768219 0.3879524767398834 0.48584288358688354
0.37754616141319275 0.4349828362464905 0.576363742351532
0.3681644797325134 0.4272778332233429 0.59419846534729
0.42958393692970276 0.3708789348602295 0.28266891837120056
0.3753368854522705 0.43212735652923584 0.5763620734214783
0.37247198820114136 0.42563116550445557 0.5789529085159302
0.3768502175807953 0.46162980794906616 0.6011584997177124
0.37255996465682983 0.4321031868457794 0.5794614553451538
0.663849413394928 0.7184996604919434 0.6231734156608582
0.38038206100463867 0.43347686529159546 0.5827391147613525
0.37734806537628174 0.42916086316108704 0.5832846164703369
0.38394400477409363 0.43347305059432983 0.5888894200325012
0.37128329277038574 0.4325214922428131 0.5907518267631531
0.3719201982021332 0.4275112450122833 0.581770658493042
0.40735745429992676 0.44318687915802 0.5417531132698059
0.3713933825492859 0.4310259222984314 0.5738255977630615
0.44707760214805603 0.9103131890296936 0.648081362247467
0.3628316819667816 0.4348766803741455 0.5773061513900757
0.37642011046409607 0.4306997060775757 0.5757090449333191
0.4490305781364441 0.6922969222068787 0.6047794222831726
0.37560954689979553 0.42165130376815796 0.5953923463821411
0.33517467975616455 0.7170348763465881 0.5972782969474792
0.38490360975265503 0.4285403788089752 0.5798913240432739
0.354661226272583 0.5755236148834229 0.5877951979637146
0.4787222743034363 0.030579710379242897 0.6612588167190552
0.3138448894023895 0.4390754997730255 0.40226590633392334
0.7168985605239868 0.3951846659183502 0.4706844091415405
0.3636108934879303 0.4264897406101227 0.5820871591567993
0.36217403411865234 0.4242442846298218 0.5765237212181091
0.2550635039806366 0.5658529996871948 0.36976051330566406
0.38203781843185425 0.4288520812988281 0.5905728936195374
0.3691544532775879 0.43069759011268616 0.5747690796852112
0.3241884410381317 0.77090984582901 0.5910012722015381
0.3788973391056061 0.4250580072402954 0.5804937481880188
0.48089516162872314 0.35435551404953003 0.5280835032463074
0.37204474210739136 0.4240660071372986 0.5825937986373901
0.6524333357810974 0.6417960524559021 0.5706995725631714
0.4203419089317322 0.4390072226524353 0.5161746740341187
0.3856362998485565 0.4222279191017151 0.592042088508606
0.37581709027290344 0.4309152364730835 0.5872827172279358
0.38001105189323425 0.4177546203136444 0.5883776545524597
0.37719109654426575 0.4372413158416748 0.5806325674057007
0.3656260669231415 0.4264846444129944 0.5769022107124329
0.3391028642654419 0.412369042634964 0.539781391620636
0.5817554593086243 0.966414213180542 0.5914007425308228
0.3705032467842102 0.42951709032058716 0.5753607153892517
0.6729714870452881 0.7011060118675232 0.5960211753845215
0.3762969672679901 0.43086889386177063 0.5758408904075623
0.3709506690502167 0.43090391159057617 0.580162525177002
0.3745298981666565 0.4322752356529236 0.5748526453971863
0.37032920122146606 0.4285529553890228 0.5713318586349487
0.34861814975738525 0.4749189615249634 0.5890847444534302
0.37786155939102173 0.4248772859573364 0.5841987133026123
0.3732292354106903 0.4276188313961029 0.5747503638267517
0.4958561658859253 0.3954813778400421 0.4624813497066498
0.3604641258716583 0.42330798506736755 0.380878746509552
0.3737131357192993 0.4278383255004883 0.5828431248664856
0.3804318606853485 0.426582008600235 0.5776240825653076
0.3631107807159424 0.42816102504730225 0.5807583928108215
0.37676799297332764 0.4351336658000946 0.5811920762062073
0.27453431487083435 0.5002285838127136 0.4612683653831482
0.3764263093471527 0.4166944921016693 0.5682212114334106
0.5051850080490112 0.347598135471344 0.46985650062561035
0.3707922101020813 0.42865505814552307 0.587727427482605
0.6604270935058594 0.9215671420097351 0.6476682424545288
0.37451615929603577 0.43312889337539673 0.5779494047164917
0.6372661590576172 0.11266317218542099 0.33687934279441833
0.48252570629119873 0.41348350048065186 0.5854772925376892
0.374336302280426 0.43416842818260193 0.5849248766899109
0.3807942867279053 0.4286639392375946 0.5821692943572998
0.371695876121521 0.4282485842704773 0.5752912163734436
0.429931104183197 0.5429089665412903 0.5822356939315796
0.37255915999412537 0.43363019824028015 0.5837716460227966
0.37688907980918884 0.4411761462688446 0.5850011706352234
0.33856427669525146 0.39595431089401245 0.44034305214881897
0.5348456501960754 0.8169209957122803 0.6571728587150574
0.37275904417037964 0.4266006052494049 0.5711540579795837
0.3726308047771454 0.4289442300796509 0.582161545753479
0.3888041377067566 0.4208333194255829 0.5825722217559814
0.4718693494796753 0.7415281534194946 0.6158185005187988
0.322550505399704 0.8994259834289551 0.624270498752594
0.599938690662384 0.3986150026321411 0.339703232049942
0.5403481125831604 0.46854257583618164 0.574007511138916
0.37523430585861206 0.4306693375110626 0.5946956276893616
0.3742181658744812 0.019991764798760414 0.35547325015068054
0.3732373118400574 0.43648532032966614 0.5774027109146118
0.3751917779445648 0.445686399936676 0.5757867097854614
0.37146812677383423 0.4338736832141876 0.5817505717277527
0.356884628534317 0.4212809205055237 0.5811339616775513
0.6436248421669006 0.43996307253837585 0.3783171772956848
0.5023488998413086 0.7687404155731201 0.6068525314331055
0.36978113651275635 0.4285504221916199 0.5816804766654968
0.35752734541893005 0.42839670181274414 0.5650495886802673
0.5423567295074463 0.4169015884399414 0.21757403016090393
0.378684401512146 0.42377686500549316 0.5806923508644104
0.3795684278011322 0.4273247718811035 0.584362804889679
0.2729344367980957 0.5684142708778381 0.4989578425884247
0.37655580043792725 0.42968666553497314 0.5839293599128723
0.3823213279247284 0.4294167160987854 0.5876220464706421
0.36630868911743164 0.4300598204135895 0.5822464823722839
0.36015233397483826 0.4206569194793701 0.5854390859603882
0.3801174759864807 0.4311980605125427 0.5899656414985657
0.6380137205123901 0.4244362413883209 0.6594052910804749
0.3737747073173523 0.42451703548431396 0.5759454965591431
0.37773266434669495 0.4290265440940857 0.5769751071929932
0.3706122636795044 0.41391876339912415 0.5720758438110352
0.37354356050491333 0.43323636054992676 0.5857201814651489
0.3667154610157013 0.42054349184036255 0.5710580348968506
0.6675815582275391 0.38545966148376465 0.3145749568939209
0.37756434082984924 0.426161527633667 0.5802675485610962
0.38361096382141113 0.42868515849113464 0.5809817314147949
0.4588790833950043 0.37851762771606445 0.570163905620575
0.48827287554740906 0.9685856103897095 0.6439805626869202
0.594325065612793 0.6712077856063843 0.5867512822151184
0.3736666142940521 0.4391971826553345 0.5857630372047424
0.5783815979957581 0.057709839195013046 0.32609546184539795
0.6067447662353516 0.3535279929637909 0.30826693773269653
0.6406658887863159 0.7949919700622559 0.60390704870224
0.36848434805870056 0.4203962981700897 0.5734509229660034
0.5801467895507812 0.42727527022361755 0.3369498550891876
0.3733769655227661 0.4297628700733185 0.5713070034980774
0.3128885328769684 0.423027902841568 0.5034050941467285
0.503829836845398 0.30701112747192383 0.47882378101348877
0.5194078087806702 0.522895336151123 0.6276877522468567
0.3787838816642761 0.8158441185951233 0.5761223435401917
0.5882524251937866 0.769723653793335 0.6455659866333008
0.3752548098564148 0.08679080009460449 0.2867530882358551
0.3724338114261627 0.4330531656742096 0.5919833183288574
0.3701680302619934 0.9672437310218811 0.6348109841346741
0.36860865354537964 0.41878312826156616 0.5756793022155762
0.5833732485771179 0.45216888189315796 0.5491936802864075
0.36878496408462524 0.4195605516433716 0.5849461555480957
0.7049786448478699 0.4293290376663208 0.6507246494293213
0.3552302122116089 0.4149542450904846 0.29225265979766846
0.375214159488678 0.4266863465309143 0.5798165798187256
0.38367539644241333 0.4305848479270935 0.5946505665779114
0.3712451159954071 0.43053868412971497 0.5649675130844116
0.4932616055011749 0.36696600914001465 0.36820995807647705
0.35573214292526245 0.41968077421188354 0.6465246677398682
0.37973976135253906 0.42482927441596985 0.5844728350639343
0.37692195177078247 0.4281969666481018 0.5773108005523682
0.3821779489517212 0.4282366633415222 0.5800630450248718
0.38116884231567383 0.43194013833999634 0.5782848596572876
0.41357848048210144 0.7154489159584045 0.6088271141052246
0.3766860365867615 0.4429604411125183 0.5737796425819397
0.37411051988601685 0.43677055835723877 0.5925776362419128
0.38299816846847534 0.43234342336654663 0.5827701687812805
0.45474138855934143 0.3740743398666382 0.3545125424861908
0.3917486369609833 0.3688712418079376 0.5178400874137878
0.5211096405982971 0.2928846478462219 0.480682373046875
0.36926427483558655 0.42602282762527466 0.5756467580795288
0.4671615958213806 0.2901156544685364 0.46577054262161255
0.6436896920204163 0.4248201251029968 0.27646976709365845
0.6872917413711548 0.3782283663749695 0.32065606117248535
0.6538708806037903 0.8384321928024292 0.6100619435310364
0.4440487325191498 0.3531241714954376 0.5158126354217529
0.749110758304596 0.523455023765564 0.3467537462711334
0.37985292077064514 0.4333431124687195 0.5831019878387451
0.3630352020263672 0.4205031394958496 0.5885676145553589
0.4239024221897125 0.390779048204422 0.5395974516868591
0.36565619707107544 0.4220551550388336 0.5785170793533325
0.23757316172122955 0.4665720760822296 0.5034528970718384
0.524642288684845 0.44088661670684814 0.2747179865837097
0.2916664183139801 0.41634827852249146 0.6350610256195068
0.6023596525192261 0.9429601430892944 0.6310118436813354
0.4672362506389618 0.3952200710773468 0.4172155559062958
0.5433415770530701 0.39120087027549744 0.627453088760376
0.29919981956481934 0.364120751619339 0.32153594493865967
0.38099950551986694 0.4324129819869995 0.5848268270492554
0.6688243746757507 0.4948493242263794 0.2828011214733124
